ply
format ascii 1.0
comment Generated by the CGAL library
element vertex 839
property double x
property double y
property double z
property double nx
property double ny
property double nz
end_header
-17.653 56.0064 40.1145 -0.026189 0.311317 0.949945
-7.24525 63.9833 23.1685 -0.399285 0.916696 -0.0155
-7.74715 -26.4853 15.9465 -0.52529 -0.067376 0.848252
32.1063 -19.903 24.0855 0.5868 -0.304254 0.750397
-32.6838 47.9649 -32.0205 -0.401503 -0.808247 -0.430735
-15.8777 56.1132 40.0365 0.118839 0.321357 0.939472
-39.9636 37.6049 7.636 -0.928081 0.319973 -0.190479
-0.22282 32.5065 -23.8095 0.830205 -0.107372 -0.54702
8.1257 15.2822 -16.3342 0.910647 -0.288669 -0.295623
-9.50925 64.0569 24.1625 -0.0342545 0.981372 0.189037
15.8644 -55.9892 0.4255 0.500941 -0.842711 -0.19722
24.055 -24.0602 32.095 0.496241 -0.134133 0.857761
40.0331 39.7346 -8.0775 0.347787 -0.441607 -0.82706
-0.10714 31.2327 -23.9245 0.596349 0.371949 -0.711352
16.1483 24.4021 13.459 0.899599 0.162749 0.40526
7.26056 40.02 31.83 0.0594016 -0.965762 0.252539
-23.3768 41.6295 -23.557 -0.581928 -0.00398237 -0.813231
-40.2386 7.61988 -16.3965 -0.856233 -0.249565 -0.452308
-9.09688 -7.24987 32.6737 -0.500162 0.488185 0.715201
-47.8011 48.1905 -8.715 -0.646188 -0.680464 0.345557
48.3381 39.0756 24.5569 0.73447 -0.2937 0.611795
17.4 39.8834 24.2558 0.0829857 -0.974608 0.207973
-18.5231 72.0485 -40.1852 0.0713694 0.997416 0.00828424
17.6793 40.1242 15.532 0.102521 -0.980125 0.169834
-16.8413 15.1207 -32.12 -0.00896072 -0.112826 -0.993574
-6.57071 72.0524 -35.3201 0.0141962 0.998718 0.0485848
38.2879 39.5697 -8.26139 -0.0380229 -0.502524 -0.863727
15.5485 64.0387 32.2533 -0.0890406 0.995476 0.033155
0.0642433 7.62872 -24.2292 0.57281 -0.583833 -0.57535
-40.2786 39.4993 32.7649 -0.903249 -0.181984 0.388616
23.2592 -15.8979 0.712167 0.306377 -0.915115 -0.262104
15.5477 -22.3146 9.12083 0.991181 0.0308951 -0.128861
-32.1193 -63.7947 10.9557 -0.969267 0.208504 0.130568
-48.4722 47.6775 -16.4462 -0.866178 -0.375599 -0.329638
8.52097 -56.3012 16.1575 0.381798 -0.326518 0.864648
14.7194 40.7096 -6.69243 0.152899 -0.958912 -0.238975
16.5657 -48.8166 -8.4615 0.29779 -0.908482 -0.293226
7.92815 23.6346 -15.2168 0.979068 0.202212 -0.0231559
19.5794 -21.6763 9.119 -0.660623 -0.218784 -0.71813
-37.5793 63.9758 15.5848 -0.0203376 0.990714 0.134431
-23.2515 -7.68098 -15.4931 -0.281391 -0.826441 -0.487662
6.06399 23.0655 23.4442 0.261288 0.438098 0.860116
32.1999 -24.1025 6.767 0.261964 -0.934684 0.240294
39.4883 31.8105 4.19108 -0.486037 -0.868841 0.094257
16.2125 17.5896 16.4965 0.855175 0.119653 0.504339
8.13845 -37.6785 24.0641 0.253142 0.0618085 0.965453
24.2709 -56.0584 10.1093 0.317323 -0.948271 -0.00939847
-10.5942 55.5723 39.8285 0.0757522 0.320566 0.944192
-40.3141 64.0879 16.6438 -0.0666817 0.997719 0.0105217
-39.8065 10.3906 15.6462 -0.841163 -0.0975222 0.531915
-10.8235 72.0449 -36.7378 -0.039933 0.997163 0.0638023
24.2707 -23.9622 32.0815 0.50924 -0.158668 0.845872
8.81207 31.8268 -16.6717 0.306841 -0.939394 -0.152929
16.4296 0.9046 -8.60194 0.551896 0.540352 -0.635162
-27.9868 55.1882 39.5114 -0.101785 0.436087 0.89413
48.5523 65.1735 -1.26278 0.945814 0.198211 -0.257192
-9.02096 0.34967 -23.8284 0.208043 -0.591119 -0.779292
15.4937 -25.079 3.15153 0.909434 0.390158 -0.143898
23.5967 -47.4861 0.2345 0.321532 -0.471975 -0.820888
-40.1384 49.7541 24.6699 -0.968491 0.0256302 0.247725
14.2392 -27.8421 15.3237 0.594523 0.484583 0.641655
-21.1544 24.7072 23.6831 0.00522874 -0.43425 0.900777
-24.8147 -55.0109 7.25104 -0.688578 0.560679 -0.45989
-33.0809 38.6621 40.6488 -0.467742 -0.352814 0.810395
-23.2995 0.273668 -23.9087 -0.227308 -0.601606 -0.765768
32.5445 -15.6859 7.68383 0.501552 0.717051 -0.484028
16.2167 37.7905 -16.9321 0.948627 -0.0932608 -0.30234
-33.7334 43.651 40.7635 -0.555583 0.0449663 0.830244
16.6732 64.0419 32.2821 0.0192905 0.982174 0.186984
-48.7771 64.2999 10.5881 -0.348342 0.930851 0.110332
24.5679 -6.37668 -8.58743 0.775388 0.180985 -0.604994
7.63817 10.2626 -15.5105 0.744826 -0.109169 -0.658267
6.25395 36.7212 14.7213 0.736497 -0.00849779 0.676388
-18.7261 4.96765 24.4098 -0.38141 -0.110683 0.917756
24.3364 40.4816 22.4805 -0.727327 -0.527694 0.438787
16.3716 17.9349 -1.15743 0.912578 0.217418 -0.346311
8.53776 17.647 24.376 0.523782 0.149884 0.838563
-18.983 10.6438 23.7794 0.143903 -0.108647 0.98361
41.2959 64.6955 -11.8826 0.508805 0.854299 -0.106256
-48.3519 51.106 -16.7942 -0.891375 0.0789331 -0.44634
-9.10327 -56.8585 -7.47674 -0.174817 -0.498892 0.84885
16.9363 -41.3942 -8.99246 0.565543 -0.482273 -0.66901
25.1417 -7.61346 17.0311 0.424182 0.827773 0.367233
15.5157 41.435 -13.5043 0.998886 -0.0467034 -0.00669169
5.23744 -56.3019 -8.35261 -0.0579849 -0.766406 -0.639734
-26.7519 -1.34643 17.0643 -0.344847 -0.665795 0.661662
48.3759 43.9389 24.8143 0.933963 0.0262677 0.356403
-2.04639 -28.1837 -8.82613 -0.352566 0.122239 -0.927769
-0.34013 43.3666 -23.9795 0.170736 0.583262 -0.794137
-16.7379 72.0729 -39.5403 -0.0894539 0.990082 -0.108333
5.833 -9.72914 -16.15 -0.091888 -0.0435767 -0.994815
49.2976 31.0488 11.4133 0.470914 -0.880386 0.0562132
40.4431 64.3747 -17.0164 0.600344 0.759584 -0.250239
10.315 63.9218 31.3684 -0.0497359 0.991098 0.123497
-16.7757 -47.2897 6.81497 -0.515442 0.725738 -0.455657
-7.09456 -33.4507 -7.35709 -0.572757 0.341931 -0.745005
20.9183 -22.7403 32.3616 -0.0101527 0.289244 0.957202
-16.4456 57.4442 -39.5398 0.63494 -0.266822 -0.725022
-24.5366 -58.4313 16.4975 -0.142458 -0.179949 0.973306
27.0462 66.3689 -25.9477 0.455392 0.626173 -0.632871
-23.5889 -7.09834 15.1644 -0.719877 -0.45654 0.522828
18.1803 -16.7491 -4.37203 0.387889 -0.912669 -0.128752
24.7536 -39.0218 -0.6425 0.547075 0.272459 -0.791502
34.4537 42.2264 -7.31155 -0.209167 -0.461884 -0.861923
-14.1302 15.3868 -32.0665 0.067829 -0.101172 -0.992554
-38.7404 34.6381 22.0584 -0.773801 -0.199365 0.601237
-16.3305 -55.5997 -24.2851 -0.662324 0.390044 -0.639682
-48.9241 64.7329 4.07323 -0.612141 0.790427 -0.0225563
16.6485 11.1445 17.0731 0.85986 0.114837 0.497447
-31.1547 10.6277 23.5765 -0.468032 -0.188493 0.863375
-29.4632 21.5273 23.6917 -0.21331 0.139509 0.966973
-17.257 -47.1273 10.2589 -0.555279 0.827609 0.0820236
-9.57889 -17.5231 -9.00326 -0.418915 -0.611057 -0.671654
-39.105 40.83 -13.4306 -0.620622 -0.735547 -0.271661
-41.4693 37.7139 27.5863 -0.884154 -0.411254 0.221678
45.5842 30.6401 10.5669 -0.161484 -0.950643 0.264955
16.7871 -30.5663 -9.29095 0.558672 0.558761 -0.612921
-17.7061 -8.59937 -16.4641 -0.15927 -0.799339 -0.579388
-22.5511 55.2602 39.5311 -0.0993995 0.360748 0.927352
25.5009 -38.7349 17.1892 0.597213 0.332599 0.729873
-26.1671 -8.88581 -10.5322 -0.379447 -0.868448 -0.319089
-30.9456 -7.26328 -4.58625 -0.578116 -0.814269 -0.0524224
16.6297 41.1063 -7.2975 0.111512 -0.777091 -0.619431
-18.4116 48.8395 -30.293 0.435191 -0.820598 -0.370442
-32.5411 7.37084 -24.2086 -0.652989 -0.251408 -0.714423
1.08366 55.0701 -32.8896 0.471599 -0.569312 -0.673408
-48.4015 25.2514 -19.9414 -0.97503 0.219154 0.0358948
12.1767 -28.7395 19.1608 0.28804 0.465424 0.836907
9.79226 -7.36878 32.9996 0.414135 0.743681 0.524814
40.3948 42.1432 -8.25978 0.494021 0.00533644 -0.869433
-49.2443 58.9175 17.3179 -0.819166 0.249015 0.51668
-27.3406 19.096 24.7564 -0.131307 0.215491 0.967637
-29.021 -72.0869 9.06762 0.0720752 -0.99598 -0.0531839
-15.1209 -15.5434 -7.21956 -0.448297 -0.748484 -0.488673
21.4856 -18.2825 4.05198 -0.0489188 -0.822803 -0.566218
15.8411 23.2087 2.04392 0.937046 0.29547 -0.186123
-25.4551 53.9304 -40.7542 -0.332571 -0.173866 -0.926913
15.5505 -44.6448 -7.73836 0.667575 0.0648314 -0.741715
-7.44975 -64.6828 -18.997 0.69106 -0.714259 0.110771
22.6491 49.4312 -14.6148 0.551553 -0.61858 -0.559596
22.8026 -33.6464 3.07408 0.734528 0.663296 -0.143199
-15.2526 -64.8427 7.48497 0.40648 -0.60948 -0.680667
-1.83152 30.2833 23.3446 0.270337 0.317236 0.908999
-7.45957 -55.4507 1.25647 -0.623402 -0.746845 -0.231501
-29.7298 37.309 -22.9225 -0.441578 0.452187 -0.774943
9.23568 -56.3199 -8.3165 0.116938 -0.704526 -0.699978
4.22481 -6.54223 34.2284 0.134064 0.723075 0.677635
-27.0305 47.3325 -34.1989 -0.22053 -0.923156 -0.314881
9.98991 -10.1966 -16.1833 0.0713144 -0.0356965 -0.996815
-9.16923 19.8832 -31.7841 0.168967 0.0120981 -0.985547
22.2241 -33.527 12.6921 0.530283 0.796773 0.289747
-18.56 -53.9508 16.9969 0.012647 -0.0281003 0.999525
33.8656 -20.6301 6.48181 0.667564 -0.0970957 -0.738194
11.5127 36.5071 11.989 0.733858 -0.594923 0.327902
33.7726 55.4318 -16.8283 0.23876 -0.851795 -0.466303
3.94286 36.2731 19.8024 0.482142 -0.529288 0.698135
-8.30458 -39.0558 -8.30579 -0.691048 0.187383 -0.698098
18.8596 54.7628 -25.7292 0.304505 -0.82725 -0.47216
-33.5393 -1.2376 -17.301 -0.520934 -0.643544 -0.560784
-5.53495 -55.2017 15.3376 0.00892153 -0.524076 0.851625
-25.6591 67.0261 -41.067 -0.480196 0.172177 -0.860097
-39.4425 39.4424 -13.1709 -0.698269 0.65509 -0.288579
-8.83939 -28.2443 16.7047 -0.713783 -0.0377219 0.69935
3.83661 -21.8763 21.804 0.150178 -0.760488 0.631748
-13.6619 -44.0377 4.02906 -0.971652 0.0225898 -0.235335
-40.9987 6.04243 10.681 -0.850945 -0.402959 0.336923
44.9535 60.8919 28.5593 0.612648 0.682732 0.39817
-2.38464 -17.1608 33.5156 -0.255112 -0.772335 0.581736
-39.7441 0.356099 -4.94102 -0.766017 -0.640525 -0.0542826
-16.6448 -5.26453 24.9945 -0.734146 0.144335 0.663473
49.6064 43.9043 4.32722 0.958523 -0.00407588 -0.284987
-39.6317 53.8784 22.5286 -0.945931 0.262999 0.18986
-25.7951 7.33557 24.2658 -0.144369 -0.391279 0.908878
32.6359 -15.4211 17.6626 0.674095 0.69917 0.23824
-33.9885 -1.39832 10.4109 -0.544944 -0.749607 0.375666
-4.29137 53.7278 -33.9299 0.237545 -0.576149 -0.782064
-13.8892 -0.37849 -24.2921 0.0639688 -0.59629 -0.800216
-4.57635 38.9906 34.3171 0.192914 -0.897118 0.397446
-21.1159 18.7541 24.5927 0.129937 0.17584 0.975806
-17.9116 -65.9184 -24.7171 -0.358692 -0.273273 -0.892559
7.12753 3.80581 -15.4356 0.572723 -0.0465574 -0.818426
-9.35134 35.1542 23.2536 0.41598 -0.227821 0.880374
-37.12 31.1245 -23.5121 -0.17102 0.500456 -0.848702
15.4986 6.23174 -7.35991 0.767612 0.188139 -0.612679
21.0427 36.1611 3.77045 0.102757 -0.992643 0.0640464
-3.69416 20.1324 25.9437 0.033773 0.131152 0.990787
16.5112 -13.7116 32.4258 0.625453 0.0103808 0.780193
1.01483 24.9859 24.3276 0.276141 0.255921 0.926418
-48.4158 64.4045 -1.55334 -0.680364 0.709958 -0.181836
24.4178 -9.56599 -8.65806 0.769987 -0.189653 -0.609222
8.87919 46.2257 -24.183 0.238165 -0.0482247 -0.970027
3.9711 -35.9595 -12.9162 -0.202173 0.105657 -0.973634
28.8133 -24.6807 6.52633 0.158242 -0.956561 -0.24485
-37.3763 44.0156 36.0238 -0.835854 0.273968 0.475699
-43.2728 11.971 -12.1783 -0.912413 -0.232888 -0.33655
-18.5016 -0.426798 -24.3015 -0.0590462 -0.573817 -0.816853
27.8236 65.0368 27.1728 -0.0228133 0.974981 0.221115
-3.96154 43.9715 -26.3529 0.262401 0.135202 -0.95544
-40.5877 64.9172 -25.1859 -0.795497 0.410331 -0.445884
-39.0823 45.89 28.6458 -0.937252 0.233625 0.2588
18.6701 -29.7046 -4.17031 0.735209 0.644158 -0.211019
48.8481 52.636 25.9676 0.926942 -0.15871 0.339985
44.003 30.8756 5.35112 0.113521 -0.93991 -0.321997
-13.8225 24.6201 -32.1186 -0.0213225 0.130918 -0.991164
-25.0969 -9.09685 10.0379 -0.681448 -0.650845 0.334706
49.2492 65.2494 18.4336 0.41746 0.868318 0.267864
-44.5912 43.6656 12.1345 -0.967326 0.041971 0.250038
13.0812 -20.9672 -4.79186 0.81792 -0.408362 -0.405275
48.7522 57.5783 26.7928 0.940977 0.283104 0.185509
-1.08577 -37.5651 24.2902 -0.192012 -0.0471391 0.98026
26.1313 -13.8392 25.6808 0.556618 0.425279 0.713662
30.2371 40.7996 -7.14321 0.204363 -0.752097 -0.626567
16.954 -16.4291 -9.72622 0.415824 -0.887771 -0.197366
-9.32122 -11.6492 33.0757 -0.55464 -0.167226 0.815114
18.4399 -56.5428 5.75259 0.224979 -0.943927 -0.241632
-42.1005 34.0637 -18.2969 -0.642219 0.593745 -0.484789
-44.5118 18.9004 -19.9402 -0.477632 -0.860613 -0.176669
-46.9001 61.6658 -12.3838 -0.873103 0.445571 -0.197884
21.8499 63.7787 31.4492 0.0498072 0.910891 0.409631
-30.2285 -6.64647 4.91546 -0.587039 -0.777515 0.225514
-0.859731 -56.6191 16.3005 -0.412853 -0.523218 0.745517
17.2487 19.6562 4.0588 0.950959 0.279495 -0.13251
-30.1907 33.855 30.2439 -0.631184 -0.486679 0.603946
9.17002 11.4253 24.7025 0.556327 0.0587811 0.828882
-27.147 11.8364 25.0601 -0.171719 -0.135205 0.975824
18.5576 3.82741 -3.86802 0.789217 0.392305 -0.472476
19.7594 -36.7658 18.9373 0.391312 0.482663 0.783525
20.6146 40.8755 20.8835 0.139373 -0.979204 0.147424
-5.45578 45.9965 40.3363 0.12997 -0.154744 0.979368
-19.7242 64.4417 18.6571 -0.0147719 0.983659 0.179435
20.1575 66.8353 12.0133 -0.0340693 0.990831 0.130744
-28.1417 -67.9019 10.5584 0.0779769 -0.624082 0.777458
36.192 41.9145 31.3979 0.072866 -0.353844 0.932462
36.0793 66.3827 19.8209 -0.0166291 0.991818 0.12657
6.95133 51.1273 -23.8036 0.229668 -0.0293697 -0.972826
28.2051 36.3882 20.1479 -0.317071 -0.903348 0.28884
-19.7168 -68.334 11.0074 0.367343 -0.923927 0.106856
-20.3347 63.7566 22.6054 -0.0187097 0.992981 0.116786
3.49805 63.7911 30.5063 -0.0370807 0.99116 0.127387
3.88544 51.7932 38.2259 0.241113 0.250907 0.937502
22.8733 -0.880387 5.41225 0.670684 0.710602 0.212668
47.8093 43.8469 0.3081 0.872061 0.1025 -0.478543
-12.1095 -51.4328 16.4466 0.0755796 -0.105526 0.99154
22.7972 -0.879315 -5.25258 0.514079 0.809304 -0.284166
-13.2149 -35.8248 4.08291 -0.981721 0.137197 -0.131912
-13.6253 -51.55 -11.3875 -0.792148 0.30397 0.529249
-38.1444 18.4499 -22.7653 -0.467978 -0.267073 -0.842418
9.48317 28.6232 -10.7969 0.853157 -0.208659 -0.478105
20.9542 -25.0482 32.3895 0.0458331 -0.340749 0.939036
47.1155 61.3054 23.3737 0.562143 0.103796 0.820501
-20.1576 -66.3625 6.18385 0.319965 -0.609351 -0.725475
-25.876 29.3891 33.0209 -0.590075 -0.41675 0.69147
-41.2186 59.9016 -25.5403 -0.804027 0.110842 -0.58417
-16.3122 -16.1846 24.1398 -0.767478 -0.545189 0.337263
-42.0987 4.48095 3.67897 -0.852743 -0.497427 0.159359
27.5996 37.9914 -4.24176 0.150791 -0.90637 -0.394659
5.09343 42.8285 -23.1374 0.220697 -0.0802287 -0.972037
-25.4411 -54.4656 11.5538 -0.758143 0.647316 0.0787493
-7.05604 -22.6376 -7.20457 -0.510359 -0.397623 -0.762515
-18.9371 41.2233 39.0781 0.169137 -0.542251 0.823017
29.7804 38.4276 26.9982 -0.371283 -0.823552 0.428849
14.2061 20.2318 -4.67495 0.874995 0.163078 -0.45584
-36.1046 -3.29225 -3.99522 -0.664293 -0.747198 -0.0202395
19.9203 67.8824 4.048 -0.0319195 0.990247 0.135614
-4.0528 37.498 28.2671 0.174139 -0.975532 0.134214
-39.9042 17.6503 15.9019 -0.772677 -0.0459508 0.633134
-3.73673 -44.0802 20.7503 -0.318392 -0.473448 0.821264
-21.3287 -57.2333 16.7764 0.346287 -0.68468 0.641325
-12.2475 53.1671 -35.2188 0.306301 -0.583336 -0.752263
-41.4512 28.3497 18.1641 -0.872118 -0.206454 0.443607
-26.9929 51.3807 41.0898 0.103794 0.250722 0.962479
-3.57017 -19.6493 -10.2435 -0.281571 -0.448841 -0.848092
-4.9062 50.8364 40.3645 0.141351 0.111385 0.983673
30.4731 45.0638 32.6002 -0.0908989 -0.248981 0.964233
20.5324 43.6925 -12.0227 0.399965 -0.682567 -0.611662
4.85637 34.1793 -22.26 0.269145 -0.638708 -0.720842
-11.9231 -60.2229 -21.1339 0.519855 0.112424 -0.846824
-27.1935 -9.8149 -3.7285 -0.539232 -0.837728 -0.0862595
2.06253 39.7465 32.8827 0.125288 -0.937052 0.325939
-28.5816 41.6088 -21.7193 -0.37255 -0.414969 -0.830064
35.527 59.0619 33.957 0.222268 0.456347 0.861594
-9.71209 -50.9045 -3.65518 -0.917103 -0.392469 -0.0699293
12.0869 -36.4373 22.0732 0.379178 0.170828 0.909418
10.941 -4.49334 26.732 0.564992 0.533968 0.629017
28.0451 -4.67575 4.05694 0.802 0.58552 0.118164
32.5146 -44.5752 6.02605 0.992256 -0.0412968 -0.117145
-14.5372 62.4999 -40.5951 0.358705 -0.301624 -0.883377
49.2606 65.806 4.7583 0.675277 0.70549 -0.21514
19.3448 -28.8965 12.0733 0.887294 0.329203 0.323008
11.2774 39.5628 27.2546 0.114959 -0.982305 0.147854
4.42149 -52.2353 18.6153 0.104926 -0.330485 0.937961
-40.2772 23.1745 16.8144 -0.85526 -0.381114 0.351116
4.40845 -59.2882 11.8565 0.0900609 -0.980595 0.174132
11.0436 26.6061 18.7096 0.600803 0.431715 0.672799
-48.8654 57.9493 -11.659 -0.908878 0.356718 -0.216084
-34.0058 59.8811 -34.0434 -0.716968 0.00211707 -0.697103
20.3338 -27.2545 20.5277 0.223405 -0.954712 0.196506
20.7185 -50.599 18.5459 -0.119489 -0.727482 0.675643
-20.0389 67.9189 -41.9362 -0.0150484 0.238966 -0.970911
-17.7022 -18.1101 11.5751 -0.798196 -0.593029 0.105825
-43.5014 26.0604 -25.0912 -0.210791 0.35068 -0.912464
-32.6149 49.8159 40.4366 -0.565095 0.254006 0.784951
-42.2741 4.15461 -3.93977 -0.873638 -0.479608 -0.0820504
-2.50922 64.2121 25.386 -0.0741454 0.985992 0.149406
-47.6669 63.6165 -6.7364 -0.766198 0.585602 -0.264596
3.87226 -37.2315 24.481 0.0688371 0.0226418 0.997371
-38.8378 1.62697 -13.0608 -0.782113 -0.532757 -0.323217
-33.8304 66.6519 -33.8356 -0.731039 0.289503 -0.617875
20.6465 -8.81774 21.9754 0.257602 0.893425 0.368012
2.79752 -4.47102 -16.5128 0.193572 -0.144507 -0.970385
35.9496 68.3695 3.95217 -0.0159096 0.990984 0.133032
19.8357 3.94227 11.9927 0.931024 0.196 0.30786
45.4867 43.7909 29.1127 0.731632 -0.230732 0.641465
3.92754 -57.1053 16.6192 0.055059 -0.463615 0.884324
43.3588 36.899 -3.20658 0.492436 -0.631978 -0.598424
15.1276 -21.7029 3.91809 0.989822 -0.0712725 -0.123175
3.33728 44.7108 -24.8561 0.206912 -0.0440965 -0.977365
-27.5548 37.6544 41.2506 0.0412008 -0.522034 0.851929
11.7635 35.3691 4.18332 0.963768 0.26015 0.0589418
28.0163 59.9671 35.5074 0.226797 0.596945 0.769558
-42.0163 66.0179 -19.6302 -0.671143 0.706652 -0.224077
-21.0669 12.1097 24.7844 0.206193 -0.0959902 0.973792
12.364 50.5788 -22.3695 0.355116 -0.356929 -0.863999
27.0555 43.2411 29.7487 -0.370603 -0.619578 0.691937
-4.3925 -19.0379 28.1876 -0.0806666 -0.9187 0.386631
-11.3464 -27.8021 11.9005 -0.898494 -0.154421 0.410929
-48.478 22.1364 -20.5382 -0.986271 -0.164563 0.0137522
-17.1924 24.5857 -32.0936 -0.0816097 0.130856 -0.988037
-11.6546 11.9987 26.2793 -0.222232 0.0635668 0.972919
-51.0404 59.9713 11.7309 -0.908969 0.335799 0.247011
-11.274 -64.6303 -15.3426 0.0898148 -0.780203 0.619045
-42.3064 36.6248 19.6745 -0.887769 -0.42271 0.182158
43.7617 67.1105 11.8536 0.0753032 0.987119 0.141161
-14.5085 -58.237 -25.4263 0.612629 -0.316573 -0.724201
-13.2497 67.2683 -40.9011 0.305143 0.0752231 -0.949331
18.5143 11.8169 12.0533 0.956236 0.118104 0.267703
-12.8032 -53.1138 14.3861 0.0355797 -0.65773 0.752413
18.0402 45.3681 32.8237 0.574 -0.32814 0.750232
-11.7533 -60.6512 -11.8661 -0.28842 -0.62119 0.728654
35.7734 34.7422 12.3168 -0.0267919 -0.977007 -0.211515
-44.0557 64.5693 11.5944 -0.0440391 0.987209 0.153226
35.9898 62.8479 30.6622 0.119381 0.800186 0.58775
-35.9208 68.8418 -19.9333 -0.17909 0.982153 0.057466
41.2572 55.4176 -9.74392 0.474199 -0.832186 -0.287405
-12.2875 44.7924 40.8768 0.109041 -0.169492 0.979481
6.48953 19.9287 -20.7887 0.877282 0.034786 -0.478712
-14.3303 -22.1662 12.2052 -0.744957 -0.64144 0.183283
-16.9122 -11.8369 25.4399 -0.849262 -0.115901 0.515094
48.8648 50.0043 5.8349 0.884039 0.433006 -0.176013
19.206 39.1494 19.9262 0.0203888 -0.977934 0.207916
-25.6067 59.8525 -40.9036 -0.464689 -0.00188457 -0.885472
4.58251 -2.67281 28.8985 0.308066 0.54118 0.782445
46.1663 57.9284 3.26136 0.774412 -0.52192 -0.35761
-17.8038 20.062 -32.2458 -0.0808446 -0.00193708 -0.996725
39.1211 56.6219 -15.1027 0.461869 -0.761575 -0.454622
13.426 -25.682 -5.16991 0.59296 0.648398 -0.477471
44.3443 34.5334 20.3788 0.162541 -0.924124 0.345797
-45.9302 19.9808 -3.92421 -0.999722 -0.00197687 -0.0234799
42.7562 57.7521 33.1119 0.233601 0.240154 0.942208
19.6973 -56.5464 10.1334 0.077755 -0.983629 0.162568
-44.1499 46.0918 -19.8968 -0.533194 -0.715992 -0.450621
-4.13687 -58.1092 11.5933 0.0189332 -0.962802 0.269545
-3.30097 50.4302 -28.8443 0.230284 -0.807957 -0.54238
20.026 43.2867 28.9412 0.431771 -0.731637 0.527524
50.0953 65.909 12.1057 0.398048 0.912637 0.0930164
-34.3982 64.1402 17.3457 -0.0544736 0.994547 0.0889343
42.4579 52.4247 33.1063 0.391482 -0.133662 0.910427
0.162152 -52.9215 -16.197 0.768641 0.0211514 -0.63933
11.8824 35.4164 -5.02829 0.929937 -0.241555 0.27725
-12.0539 -51.5996 -20.7656 -0.00325201 0.596437 -0.802653
-19.8717 -10.4756 -12.1858 -0.295088 -0.841993 -0.451631
-20.6515 -4.32494 20.1138 -0.741286 -0.133019 0.657876
-20.1222 21.3845 23.7104 0.0635554 0.126017 0.98999
-4.53643 -8.61178 -16.2663 0.0877595 -0.435606 -0.895849
-21.1421 3.68692 22.1507 -0.163975 -0.417743 0.893646
-28.5489 -60.4904 12.0026 -0.832462 0.360704 0.420594
2.48932 60.3376 -34.4353 0.56391 -0.264374 -0.782375
-28.2297 19.8767 -28.8382 -0.434927 0.0263132 -0.900081
19.5922 11.9232 4.1501 0.984571 0.174904 -0.00526839
-11.8315 70.9687 -36.0688 0.0742666 0.973427 -0.21662
49.9804 36.8832 19.5724 0.788303 -0.379233 0.484521
35.7545 67.3506 12.0057 0.00858529 0.99375 0.111301
-45.1838 20.0781 -11.9927 -0.976441 -0.211805 -0.0412489
-2.78431 -57.1722 -3.48191 -0.336292 -0.92204 -0.191704
17.933 -36.3679 -9.73141 0.708576 -0.0861393 -0.700357
27.7898 49.1582 31.3529 0.37016 -0.431746 0.822543
-35.7587 46.8181 -27.3282 -0.256754 -0.856982 -0.446832
-33.7395 57.9271 34.18 -0.569915 0.67128 0.473899
29.4531 58.1852 -22.2977 0.422782 -0.630386 -0.651052
2.34495 19.7487 -26.1977 0.662431 0.0502854 -0.747433
-3.96276 28.2645 -28.365 0.505304 0.222628 -0.833729
21.1138 -53.3918 2.47732 0.43488 -0.654317 -0.618668
13.0171 -54.3747 14.5903 0.223148 -0.574186 0.787728
3.82224 -19.6854 28.1553 -0.104804 -0.978133 0.179646
-27.6738 -3.00344 -19.3163 -0.338347 -0.697124 -0.632091
3.94065 -19.8536 -11.8455 -0.0772562 -0.510792 -0.856226
3.4594 -12.8061 -15.2027 -0.131125 -0.296923 -0.945856
-32.47 -66.8763 9.99211 -0.985412 0.0752287 -0.152658
5.00859 -33.9518 23.5742 0.123042 0.369163 0.921184
-20.154 36.0954 -28.814 -0.532418 0.132511 -0.836046
-51.1623 46.1559 3.68684 -0.612427 -0.789535 0.0395879
-41.2634 5.10369 -11.3358 -0.877905 -0.389399 -0.27866
-33.6133 29.7526 25.3196 -0.544751 -0.363772 0.75559
50.8805 60.0678 12.0783 0.867239 -0.49616 0.041499
-36.9082 27.12 22.1879 -0.493386 -0.343475 0.799122
2.74418 37.3096 -24.8554 0.338822 -0.195309 -0.920355
-41.0169 47.2143 -24.6402 -0.490116 -0.649683 -0.581118
-51.9376 51.8995 -4.29849 -0.913777 -0.0292736 -0.405159
-11.9304 35.9548 -30.765 0.157775 0.176118 -0.971643
-45.0118 48.9495 14.4272 -0.238063 -0.77084 0.590874
-43.5652 43.981 -11.6796 -0.658285 -0.731294 -0.178523
-18.2147 -66.5982 -20.9929 -0.916138 -0.331083 0.225996
8.72807 -7.33305 -16.152 -0.0039909 0.188908 -0.981987
-19.2633 50.8811 -37.6888 0.422393 -0.629941 -0.651735
4.52403 4.29969 27.5109 0.325251 0.0538917 0.944091
-13.2291 -43.1868 12.0817 -0.920891 0.139226 0.364109
-17.5407 -60.3052 -25.0784 -0.706912 0.211228 -0.675025
25.9915 39.7091 -8.53826 0.230955 -0.787902 -0.57085
14.6937 -53.62 -6.54771 0.643975 -0.443172 -0.623615
-44.2813 21.9996 -24.9039 -0.0938669 -0.400535 -0.911461
-11.8836 68.8538 -11.9911 -0.0324864 0.99076 0.131679
21.1233 3.81308 4.32858 0.96705 0.254528 0.00550212
18.4884 38.6865 -10.696 0.754686 -0.494899 -0.430725
-36.02 65.8812 3.98332 -0.0368402 0.990996 0.12872
13.4184 40.3387 30.2033 0.13065 -0.97403 0.184923
1.95021 66.8829 -34.38 0.636585 0.457147 -0.621109
-4.2636 -27.8135 18.894 -0.429697 0.180778 0.884692
-42.4416 27.8405 12.3276 -0.992035 -0.120819 0.0356346
17.4048 19.4276 12.1595 0.949874 0.207124 0.234177
43.2365 37.9301 26.4277 0.277765 -0.719278 0.636778
4.08413 -44.4521 21.8297 0.0308813 -0.528786 0.848193
-40.3759 41.6669 32.9464 -0.924577 0.137607 0.355276
4.46813 61.7823 35.2241 -0.225583 0.782701 0.580079
-16.5814 -53.7856 -14.8505 -0.874863 0.202713 0.439912
48.5768 31.5363 7.2808 0.611224 -0.646465 -0.456605
4.2006 69.9681 -28.2039 0.146485 0.903623 -0.402502
46.3736 51.6242 29.7313 0.764773 -0.149578 0.626697
-27.8875 64.2963 18.1733 -0.0327226 0.991065 0.129301
27.5725 37.0694 3.92966 0.0734357 -0.997165 -0.0164044
-4.80215 63.5683 28.4947 -0.0377516 0.987968 0.149978
20.339 59.4741 -28.2016 0.250563 -0.32017 -0.913624
45.7902 52.9256 3.27452 0.759663 0.295333 -0.579388
-28.2153 11.8893 -28.1345 -0.435688 -0.202015 -0.877135
35.8996 67.5747 -12.0836 0.391338 0.908929 -0.143885
5.80282 59.1505 -30.1225 0.325688 -0.452003 -0.830434
49.7479 59.9577 19.8876 0.956572 -0.0774301 0.281023
-3.42754 -6.53363 33.7786 -0.143866 0.722345 0.676403
11.949 -57.862 4.09803 0.261948 -0.96297 -0.0638051
17.6897 -51.8351 -2.80867 0.804281 -0.39891 -0.440458
-12.28 37.6846 34.9961 0.232002 -0.814112 0.532351
-3.82934 -36.2228 -10.2194 -0.442262 0.235688 -0.865365
-11.6975 64.5547 19.6513 -0.0425272 0.988634 0.144202
12.1923 67.5961 4.05001 -0.036986 0.990608 0.131633
12.1498 52.1116 36.3838 0.184542 -0.271566 0.944561
11.1703 -21.5362 21.4271 -0.275369 -0.919091 0.281857
34.9246 -20.2085 11.9958 0.927223 -0.330763 0.175653
-4.1867 59.732 35.7858 0.170575 0.669497 0.722965
20.3483 52.0666 -20.0761 0.403011 -0.726382 -0.556733
-4.28958 26.9919 24.7934 0.130156 0.224169 0.96582
-3.89267 70.2024 -19.9307 -0.0271029 0.991251 0.129178
17.3322 11.6437 -2.41653 0.850548 0.203718 -0.484837
-45.9929 52.3037 -20.5287 -0.843219 0.092647 -0.529527
-20.3709 -13.6746 -4.61154 -0.493751 -0.819586 -0.29067
18.7841 -29.1392 3.97522 0.75442 0.656367 -0.0058497
-36.0768 67.9894 -11.8809 -0.0342928 0.990344 0.134322
-28.2997 63.7535 22.1115 -0.0290527 0.990385 0.135251
7.31232 28.2646 -14.2448 0.921237 -0.0687493 -0.382879
-36.1863 43.2434 -20.0712 -0.41607 -0.663732 -0.621567
-9.52368 -43.1204 17.7022 -0.667131 -0.233085 0.707536
28.031 35.7052 11.6751 -0.214877 -0.966254 -0.142062
-28.2563 69.0949 -36.2755 -0.477482 0.748197 -0.460664
-20.2986 -59.3282 12.4473 0.330685 -0.504518 0.797564
-5.94389 -27.9726 -6.6918 -0.525372 0.0345005 -0.850173
4.69886 28.1879 -19.9212 0.828301 0.20092 -0.523018
-18.7311 -59.6677 -19.8239 -0.987688 0.0612672 0.143939
-51.8367 60.138 4.10133 -0.907739 0.41881 -0.0246666
14.7536 27.5619 4.38631 0.950789 0.307523 -0.0378047
20.7171 36.8431 -4.23097 0.0539046 -0.943686 -0.326422
11.5563 35.6141 -19.9397 0.538297 -0.561559 -0.628401
-45.7813 42.3811 3.83763 -0.877021 -0.480274 0.0130984
19.815 70.547 -19.9927 0.158673 0.984964 -0.0683226
27.5088 -37.3096 12.0197 0.7173 0.64926 0.252868
-21.1254 53.7764 -40.7293 0.263431 -0.336549 -0.904068
28.9983 -12.2134 3.65152 0.913651 -0.32174 -0.248445
-28.4809 45.6307 -27.7572 -0.193256 -0.845872 -0.497145
-11.9574 11.5957 -30.7517 0.108837 -0.321726 -0.940557
11.9925 64.4688 27.728 -0.0359059 0.991071 0.128407
3.44161 -52.6875 -11.7515 0.449063 -0.4656 -0.7626
-42.405 36.5992 4.06104 -0.979945 -0.180399 0.084639
-4.41539 -22.2361 21.408 -0.129419 -0.823568 0.552256
-49.7938 46.8093 9.48935 -0.374134 -0.793321 0.480276
35.8884 69.1894 -3.82697 0.0620822 0.997747 0.025446
-20.2518 11.6952 -30.6836 -0.154769 -0.290284 -0.944342
-12.0658 51.7046 40.6953 0.0526064 0.13503 0.989444
5.22796 11.7775 -20.3016 0.828989 -0.31315 -0.463373
12.2434 -3.46749 -14.0218 0.262156 0.386992 -0.884031
-27.9057 65.1146 11.9247 -0.0350636 0.99061 0.132143
-29.6156 59.9867 -38.0747 -0.626947 -0.0109056 -0.778986
-39.1471 0.865338 5.01508 -0.689295 -0.698596 0.191927
-27.3914 43.8777 42.2855 0.0688739 0.0173866 0.997474
17.9695 44.9946 -18.2121 0.699542 -0.403321 -0.589892
-35.0708 4.6372 18.2405 -0.555424 -0.505626 0.660186
48.5885 62.83 -1.08069 0.856583 -0.307183 -0.414614
11.4634 -17.8819 33.7644 0.309242 -0.645673 0.698195
26.5974 -49.9322 18.1762 0.448516 -0.709754 0.543215
19.9706 70.0083 -11.8451 -0.0338789 0.99039 0.134089
-41.1643 42.4683 27.4095 -0.911521 0.3708 0.177868
35.5719 45.8129 32.5869 0.0538279 -0.268184 0.961863
14.3402 -2.8371 22.5261 0.652732 0.238944 0.718921
-28.1167 -4.53231 12.4753 -0.567494 -0.660936 0.491034
-37.4342 2.49155 12.5168 -0.6527 -0.662278 0.367927
-48.9791 47.2832 -12.7869 -0.711048 -0.701162 0.052756
11.4856 -57.44 11.0607 0.319446 -0.905721 0.27861
4.18227 27.9476 21.941 0.377529 0.384004 0.842623
-33.4884 12.7783 -25.0685 -0.587411 -0.168294 -0.791597
-35.4286 -2.57823 -11.8045 -0.633828 -0.728497 -0.259911
-42.6274 35.7166 -3.77328 -0.963402 0.266081 -0.032516
-42.3772 51.223 19.9037 -0.810639 -0.212698 0.545549
43.4159 33.3824 13.8087 -0.376653 -0.875927 0.30147
4.33195 64.3485 26.5039 -0.037322 0.991247 0.126633
13.8406 27.7388 11.9693 0.874164 0.399947 0.275463
13.6051 4.26608 21.7769 0.68063 0.0934034 0.726649
26.6731 -11.6464 -3.57289 0.756791 -0.474691 -0.449372
-3.97556 60.0213 -36.7421 0.253884 -0.350737 -0.901403
-4.47403 -51.8388 -17.7055 0.48391 -0.0966274 -0.869767
-21.9882 -13.8583 4.15367 -0.702343 -0.710819 0.0380809
3.84198 -58.0353 -4.00507 -0.053565 -0.952347 -0.300276
35.6706 34.6582 3.99944 -0.301297 -0.951545 -0.0614937
-29.4021 1.60511 -22.7219 -0.383951 -0.555027 -0.73792
20.017 -43.8813 21.1808 -0.05231 0.0450145 0.997616
-19.9684 28.8981 33.9065 0.200385 -0.539737 0.817637
-3.72896 -58.2892 4.10627 -0.300527 -0.942724 -0.144755
-3.72894 -51.4096 17.3294 -0.230715 -0.316829 0.919995
11.7211 -18.3235 -11.4562 0.37712 -0.734488 -0.564188
-9.68883 -45.3553 -11.0363 -0.740494 0.654716 -0.151708
-38.8908 52.1686 28.1001 -0.962448 0.136531 0.234634
19.7615 -4.45885 -11.5321 0.476137 0.44385 -0.759138
28.2574 -52.6677 12.0889 0.677637 -0.684607 0.268555
-17.1025 -17.003 -2.07722 -0.620484 -0.711763 -0.329231
-11.0395 -43.911 -3.97921 -0.912802 -0.102233 -0.395399
-12.0478 -59.9725 5.44048 0.375371 -0.540078 -0.753268
3.85415 70.4924 -19.941 -0.0327214 0.990458 0.133873
-26.4835 -9.94988 3.80925 -0.628688 -0.760036 0.16461
3.94705 69.4006 -11.8367 -0.0384522 0.990305 0.133483
-4.10509 -3.61579 -18.8115 0.294008 -0.47623 -0.828712
-3.65004 20.1225 -29.9281 0.420457 0.0560857 -0.905577
-35.1603 -2.99741 3.76435 -0.631021 -0.745893 0.213203
11.303 -51.8635 -9.52502 0.370954 -0.274889 -0.887034
30.1411 -11.205 12.0794 0.875027 0.481387 0.0509307
-13.3881 63.8829 23.2592 -0.0694887 0.983772 0.165422
-14.7112 -22.0397 3.55653 -0.851347 -0.492041 -0.181945
35.7877 44.1807 -9.72793 0.175771 -0.322852 -0.929985
-4.08614 71.2464 -28.0819 -0.00164326 0.995034 0.0995171
-19.5046 51.6101 41.1836 0.00200566 0.242015 0.97027
41.3391 64.9459 25.7147 0.34253 0.863141 0.371026
27.3916 -51.3715 4.97374 0.525614 -0.626953 -0.57503
20.2832 51.9861 35.6999 0.107836 -0.464619 0.87892
12.0931 66.549 11.9021 -0.0350084 0.991558 0.124845
-41.0956 12.9127 -17.6821 -0.840028 -0.249583 -0.481727
-16.8111 -58.8447 -14.7886 -0.808402 -0.141566 0.571354
20.122 -26.4329 28.2571 0.293187 -0.938715 0.181262
10.8827 12.1972 -11.6869 0.786218 0.081137 -0.6126
-45.4995 28.8965 -20.4428 -0.692954 0.639199 -0.333526
-13.2766 -53.941 -24.9016 -0.202304 0.45066 -0.86947
-37.8525 51.7173 -30.055 -0.688807 -0.236862 -0.685158
-27.9478 66.1701 3.92454 -0.0348214 0.990038 0.13643
27.7895 63.5083 31.2286 0.0755419 0.876028 0.476306
-12.0355 4.01483 -26.9217 0.123786 -0.535274 -0.835559
38.5807 51.2596 -5.86107 0.870451 -0.161273 -0.465087
-19.8956 60.1699 -41.5894 0.15648 -0.160303 -0.974586
27.1706 54.4483 -18.5945 0.33446 -0.829261 -0.44773
11.8486 -43.6099 -10.6595 0.387617 -0.299543 -0.871795
-20.0235 68.5532 -11.9149 -0.0320663 0.991375 0.127069
-3.88315 64.8959 19.8636 -0.0416527 0.990335 0.132291
-36.3071 62.7096 20.594 -0.25316 0.918709 0.303124
-45.1262 27.5217 -4.02924 -0.978675 0.203003 -0.0313902
-37.3865 11.6706 -21.5318 -0.667081 -0.247024 -0.702839
12.0873 54.0098 -26.5976 -0.00831762 -0.821997 -0.569431
42.2936 45.8938 32.5733 0.146319 -0.152154 0.977466
49.5013 43.9601 20.1364 0.984937 0.106862 0.135937
49.6825 44.1624 11.9104 0.978447 0.194624 0.0690122
-11.6209 -18.0677 26.705 -0.435516 -0.723415 0.53572
12.5802 43.8264 -21.4624 0.447821 -0.154512 -0.880672
21.6071 -2.73002 12.9337 0.772569 0.468188 0.428879
-36.1997 35.603 -20.9534 -0.37594 0.521373 -0.766055
11.7553 3.92451 -11.7601 0.656999 0.111635 -0.745581
49.1064 36.9068 5.35054 0.899722 -0.213654 -0.380594
21.4102 -36.1862 -4.44146 0.890824 0.0754946 -0.448033
-44.6816 60.0234 -20.1965 -0.853052 0.192033 -0.485207
-20.4643 44.0903 41.295 0.151605 -0.271928 0.9503
-28.2825 35.1651 36.2248 -0.130045 -0.959716 0.249066
-3.67116 11.7025 -28.6076 0.375231 -0.347771 -0.859219
-17.824 -18.1537 4.54153 -0.73697 -0.67008 -0.0887053
20.1694 60.8117 35.5121 0.0454253 0.633724 0.772224
-45.1339 12.0048 -4.06344 -0.973519 -0.213759 -0.0810388
-27.4964 5.09165 -25.8169 -0.339974 -0.466869 -0.816365
19.9089 -54.7201 14.1664 -0.0546039 -0.764028 0.642868
-42.1344 11.9019 11.7894 -0.894233 -0.140972 0.424822
-44.1088 66.1826 -3.99538 -0.282959 0.958989 0.0165613
-12.7548 28.3132 27.4856 0.522844 -0.442255 0.728728
26.7709 60.7573 -25.9465 0.518164 -0.388129 -0.762143
-43.071 66.3393 -11.787 -0.523999 0.848408 -0.0750251
10.9333 -50.6775 17.204 0.260497 -0.417128 0.870715
32.4405 -44.7518 9.28972 0.973067 -0.00890215 0.230351
-11.9883 69.9214 -19.9553 -0.0366774 0.990765 0.130534
-50.1413 46.4712 -2.97341 -0.501529 -0.823254 -0.265935
-42.1582 43.9077 20.3458 -0.930529 0.270382 0.247
8.19108 19.5308 -16.8172 0.983517 -0.00717573 -0.180672
-28.0278 27.7048 28.0238 -0.492482 -0.720722 0.487875
11.6979 -57.3513 -3.53349 0.283488 -0.946767 -0.152535
27.3659 -44.4155 18.9269 0.66756 0.226517 0.709263
28.9004 -25.0344 12.0011 0.536976 -0.837128 -0.104273
-27.763 34.4753 -25.5904 -0.414377 0.379811 -0.827064
-4.52362 -36.2529 22.5323 -0.446015 0.0931643 0.890164
14.8485 12.981 -6.12832 0.820209 0.172651 -0.545389
-27.0361 -60.1666 5.90427 -0.589287 0.335729 -0.734865
-19.5852 36.1491 36.7895 0.413466 -0.456375 0.787888
12.3077 38.7103 20.3138 0.136072 -0.985095 0.105227
-34.8564 20.2537 -25.3294 -0.454928 -0.0920942 -0.885754
33.0271 -15.0464 12.388 0.678162 0.734595 -0.0215989
-27.9481 70.4165 -27.9034 -0.0401259 0.991348 0.124979
-12.0854 4.18518 26.6269 -0.295789 0.0454197 0.954173
31.0602 -23.3263 11.0854 0.627574 -0.77664 -0.0546039
-34.0935 52.2258 -34.0522 -0.677445 -0.176286 -0.714137
-4.78228 5.57361 -25.7911 0.380048 -0.531654 -0.756906
-10.6674 -36.1818 -4.07017 -0.855436 0.161521 -0.492078
-20.0937 4.05926 -27.073 -0.100995 -0.520918 -0.847611
12.2018 -11.9921 34.7016 0.488637 0.249125 0.836164
-9.72932 -35.9735 18.0959 -0.818929 0.162829 0.55031
-36.058 66.9568 -4.11018 -0.0293071 0.990443 0.134773
43.6286 67.9881 -3.26558 0.338309 0.906089 -0.254068
3.90653 66.242 11.9758 -0.0358927 0.991004 0.128927
-43.0158 36.1795 12.1547 -0.967304 -0.233568 -0.0988376
-27.786 59.9749 35.6366 -0.234115 0.801472 0.550303
42.1881 52.5475 -3.03174 0.799384 -0.299553 -0.520819
-28.3564 3.18731 20.7616 -0.228213 -0.627338 0.744558
-12.116 -20.2643 -4.32333 -0.624879 -0.548063 -0.556016
-3.71142 67.0067 4.0854 -0.031847 0.990698 0.132302
25.0714 -24.7221 27.2454 0.456099 -0.776581 0.434622
-2.84446 2.27465 -22.0073 0.489117 -0.54685 -0.6795
35.8126 59.7628 -19.6598 0.445619 -0.463447 -0.765924
11.8878 69.3223 -27.9756 0.143143 0.751223 -0.64434
-11.9997 63.3253 28.0716 -0.0392296 0.990539 0.131502
-11.7524 59.5312 -38.4879 0.2372 -0.384107 -0.892299
12.6962 27.7901 -4.28307 0.899888 0.222615 -0.375026
14.7627 -26.006 26.9698 -0.921119 -0.349377 0.171684
13.1822 11.8416 21.2157 0.709725 0.089525 0.698767
12.0568 59.9099 -29.8122 0.11763 -0.151872 -0.981376
-35.3675 59.7529 27.7641 -0.682888 0.659035 0.315178
-20.0244 71.5369 -35.9491 -0.0594003 0.996498 0.0588477
-22.464 47.4609 -34.8263 0.28553 -0.95041 -0.123261
4.21251 -17.9079 34.4054 -0.11155 -0.796215 0.594641
-3.90349 3.92628 27.988 -0.0880753 0.0873237 0.992279
3.96965 65.1933 19.9581 -0.0333809 0.991184 0.128219
-11.2805 35.0311 28.2019 0.698046 -0.555194 0.452207
-27.9442 67.2177 -3.98189 -0.0328713 0.990515 0.133417
1.68005 12.5177 -25.6608 0.637112 -0.31067 -0.705388
-20.2708 -4.44835 -20.3953 -0.148223 -0.696896 -0.701688
4.06054 68.3719 -4.04806 -0.0387558 0.990861 0.129202
-20.1501 -52.1013 5.47496 -0.52147 0.487226 -0.700486
27.7786 -20.2157 27.4762 0.697176 0.0769582 0.712757
-36.1018 36.6687 35.5319 -0.478482 -0.757712 0.443765
-3.98502 12.3078 27.0442 -0.0406297 0.149273 0.987961
-20.0351 44.7136 -27.966 -0.107829 -0.55103 -0.82749
-21.4301 -12.6808 12.236 -0.802536 -0.550157 0.230791
50.0663 51.9116 12.2728 0.981403 -0.078077 -0.175364
-19.9967 65.3921 11.9294 -0.0352316 0.990806 0.130619
2.93515 4.40795 -18.8958 0.594433 -0.345327 -0.726222
-36.2983 67.6176 -28.1056 -0.659523 0.680144 -0.320052
36.4383 37.3425 27.5258 0.0321059 -0.804654 0.592875
11.7442 -44.2276 20.7839 0.145904 -0.464379 0.873535
-44.8461 43.0744 -4.63253 -0.707323 -0.667254 -0.233381
35.6316 65.3112 26.4854 0.0260485 0.958754 0.28304
21.9382 -14.9333 -4.9526 0.427198 -0.875525 -0.22574
-4.10138 -12.8899 35.2727 -0.364491 -0.258659 0.894563
-41.8576 52.1387 -26.0255 -0.74526 -0.043357 -0.665363
3.99854 -40.5601 24.1802 0.0187727 -0.26064 0.965253
28.0491 66.089 19.9318 -0.0353057 0.990907 0.12983
-12.7387 -27.7162 4.02038 -0.984438 -0.150493 -0.0907458
3.51697 52.5431 -27.0796 0.479162 -0.570389 -0.667128
-49.4528 54.0724 17.1072 -0.773287 -0.268573 0.574365
15.7652 23.0241 14.5462 0.889457 0.320626 0.325676
-13.1325 -12.9595 29.5167 -0.651456 -0.292603 0.699992
-5.37246 -54.8555 -4.33396 -0.502034 -0.861596 -0.0749255
28.1895 67.1075 12.194 -0.032812 0.991282 0.127608
-35.9858 34.9722 28.0629 -0.312374 -0.928772 0.199512
-11.734 70.9966 -27.8983 -0.0419164 0.989493 0.138372
30.3039 -43.6813 12.4868 0.901192 0.18581 0.391571
-43.6665 61.8438 18.984 -0.277022 0.731978 0.622469
-12.078 67.7596 -3.81496 -0.0355589 0.990881 0.129967
19.9238 68.9455 -3.94316 -0.0330127 0.99037 0.134451
44.3972 44.0509 -3.8909 0.720408 0.290898 -0.629596
29.0133 -44.5598 2.00564 0.569002 -0.162283 -0.806165
-21.9095 20.3936 -31.364 -0.298923 0.0245565 -0.953961
-19.9771 60.7139 35.8636 -0.0458724 0.856456 0.514178
-4.21874 68.0491 -3.91236 -0.0318949 0.990796 0.131553
27.5264 52.3496 35.0526 0.0814484 -0.553168 0.829079
45.188 59.3919 -4.27594 0.93989 -0.305229 -0.153108
50.025 51.8577 20.131 0.981358 -0.118197 0.151542
4.02339 -12.1545 36.8928 0.0292746 0.0171743 0.999424
9.66082 3.6306 24.9804 0.552166 0.0944323 0.828369
-10.1522 -27.8262 -2.94457 -0.806861 -0.022442 -0.590315
28.7184 -11.9681 20.0325 0.708019 0.611379 0.353446
-27.9684 62.8896 28.0537 -0.0361318 0.985386 0.166459
-45.7228 28.0375 -12.0201 -0.946389 0.212391 0.243389
12.5102 19.9518 20.3292 0.700996 0.195722 0.685783
27.7921 68.1689 4.07904 -0.0416147 0.990792 0.128842
-44.2026 27.8184 3.93153 -0.95771 0.169177 0.232746
-4.57292 -46.5991 -17.6868 0.336738 0.57783 -0.743451
43.4157 59.7769 -11.9368 0.88446 -0.224282 -0.40918
-4.00288 -59.3899 -12.4208 0.550011 -0.733413 0.399491
-9.77415 -47.2312 -17.9084 -0.351014 0.874106 -0.335748
28.3587 -26.1688 20.0959 0.600428 -0.700068 0.386512
-17.2431 -53.8736 -19.7345 -0.870231 0.471412 -0.143066
-4.13781 -12.4139 -14.2513 -0.098121 -0.477758 -0.872995
-2.76153 53.7281 39.2116 0.212969 0.351114 0.911791
-16.9673 -17.2498 19.3887 -0.796131 -0.572102 0.197167
-35.8475 4.45166 -19.6581 -0.653076 -0.405336 -0.639683
-3.37413 42.6657 38.4495 0.216761 -0.563253 0.797346
36.0681 34.5833 20.3201 -0.157712 -0.974091 0.162092
-13.7888 -65.4892 11.4805 0.594994 -0.802872 -0.037129
12.0665 68.6626 -4.02257 -0.0340802 0.991478 0.125735
-11.9355 49.9679 -29.1087 0.172683 -0.747862 -0.641001
-19.2265 -12.0813 20.0758 -0.900823 -0.282554 0.329668
28.3959 -20.1438 4.80852 0.0675504 -0.110856 -0.991538
-37.9095 60.0994 -29.6584 -0.761435 0.0582019 -0.645623
-12.3595 -3.85791 27.9105 -0.490891 0.368734 0.789342
3.83008 38.9277 28.4953 0.151092 -0.968695 0.196979
-12.2405 -12.7789 -12.5316 -0.228552 -0.720426 -0.65479
-49.7277 52.1874 -12.3957 -0.983564 0.0277278 -0.178421
25.4076 -43.2751 -0.570982 0.371791 -0.115677 -0.921081
30.7916 -21.6273 21.1919 0.827672 -0.3902 0.403365
13.4389 34.424 -12.1263 0.705716 -0.701005 0.102747
4.18707 -28.1318 20.4954 0.104293 0.331518 0.937667
-19.9262 27.907 -30.7218 -0.251047 0.216574 -0.943436
12.2877 -20.6384 28.4572 -0.279259 -0.908589 0.310614
-11.8507 -4.43295 -20.5397 0.141834 -0.642021 -0.753454
17.2339 3.50701 17.7294 0.8238 0.119925 0.55405
-12.0741 -67.1195 -19.7133 0.460964 -0.844588 0.272365
12.9163 -12.9498 -15.0754 0.203093 -0.313236 -0.927705
41.008 61.3054 -16.9474 0.703416 -0.139196 -0.697015
-36.7308 11.9314 19.4141 -0.710822 -0.0936507 0.69711
26.9354 -4.78334 -3.70874 0.828087 0.39271 -0.400062
-19.718 25.8962 28.2453 0.117704 -0.958692 0.25895
-4.23385 65.9269 12.1086 -0.0359181 0.990914 0.129609
-12.0207 66.7041 4.11915 -0.0434806 0.990643 0.129363
-42.3534 19.9093 11.8752 -0.903558 0.0284882 0.427518
-44.1677 63.88 15.4526 -0.0764585 0.978688 0.190587
-19.7449 -60.5865 3.91659 0.0632392 -0.181668 -0.981324
-37.4228 20.088 19.2708 -0.717033 -0.140116 0.682811
12.141 -36.3059 -12.7582 0.250256 -0.0384922 -0.967414
12.0053 70.7873 -19.9302 -0.027637 0.991241 0.129139
-35.4531 27.2263 -24.9339 -0.1702 0.18966 -0.966985
19.7379 -12.306 -11.7669 0.585491 -0.419708 -0.693575
28.0025 69.2488 -4.00781 -0.0383066 0.991154 0.127065
43.5089 65.9793 19.5984 0.136089 0.979658 0.147477
-3.84331 35.9094 -27.4814 0.479695 -0.0240552 -0.877105
33.4212 -19.2445 19.0892 0.917976 -0.154059 0.365493
-10.3914 -61.2549 11.6614 0.723381 -0.644152 0.248571
43.7945 68.0716 4.01208 0.135847 0.980166 0.14429
-29.2143 24.8331 23.6886 -0.118677 -0.272657 0.954764
-27.8739 69.3567 -19.9878 -0.0259285 0.991029 0.131104
-44.9306 20.0036 4.12721 -0.971432 0.0425953 0.233466
-35.8089 64.7802 12.0665 -0.0512694 0.986647 0.154596
-28.3431 28.1348 -27.5104 -0.431446 0.226641 -0.873206
19.71 64.7565 27.6311 -0.0282223 0.987882 0.152617
-20.0677 63.0882 27.7796 -0.0434874 0.98906 0.140955
36.2529 36.6396 -4.45743 -0.221314 -0.781906 -0.582789
19.9462 -44.0468 -3.58942 0.62091 -0.338495 -0.70703
-43.9622 65.5857 4.00699 -0.055302 0.990716 0.124191
36.1017 51.7441 34.5888 0.225587 -0.249183 0.941816
49.9574 60.7118 4.85232 0.741148 -0.57399 -0.348187
4.03181 -27.9028 -9.92285 -0.072874 0.308914 -0.948294
18.4073 -4.30202 18.8809 0.726725 0.339082 0.597406
-12.0626 44.2386 -28.1202 0.141353 0.123162 -0.982268
-11.8556 65.6295 12.3004 -0.0365947 0.990774 0.130489
12.0823 69.7406 -12.0378 -0.0385661 0.990333 0.133244
19.726 -12.3112 28.771 0.551839 0.512649 0.657772
12.1121 61.3218 36.2316 0.149409 0.704242 0.69406
20.5459 37.3371 11.6469 -0.174761 -0.969811 0.170077
-4.42309 -2.65094 29.5846 -0.106563 0.537875 0.836263
26.9097 -6.0783 11.1167 0.600104 0.711703 0.365177
-43.0208 35.2608 -11.6435 -0.880763 0.471904 0.0395474
-20.1424 66.4501 3.79872 -0.0379484 0.991256 0.12638
-11.8351 19.8329 25.5732 -0.140543 0.100055 0.985006
-3.00502 -52.351 -14.0598 0.191504 -0.32824 -0.924978
3.79652 67.3029 3.9165 -0.0310298 0.9911 0.129451
-12.0743 -8.72528 -16.8087 0.0119391 -0.670449 -0.74186
-28.0547 68.3077 -12.1949 -0.0320159 0.991469 0.126351
35.1598 66.4085 -19.1757 0.450399 0.810504 -0.374463
3.99415 -59.4669 4.20075 0.0664369 -0.995241 -0.0712778
-29.2835 -6.4012 -12.8582 -0.453384 -0.825298 -0.33664
-19.8497 69.6316 -19.9232 -0.0352271 0.99117 0.127833
-4.13802 69.138 -12.0221 -0.0292952 0.989833 0.139187
28.3401 51.3253 -13.9189 0.251266 -0.596441 -0.762314
4.17552 19.3627 25.281 0.281774 0.229473 0.931636
-35.8126 51.9446 35.6344 -0.834039 0.159335 0.528196
27.8602 68.6538 -19.943 0.233109 0.948082 -0.216333
35.8801 53.2668 -12.2127 0.449761 -0.698935 -0.556062
19.9653 65.7798 19.9556 -0.0350349 0.99091 0.129881
-15.3981 30.2345 32.8067 0.776675 -0.293612 0.557286
-4.53957 -60.6324 -18.3197 0.761767 -0.496289 -0.416424
-28.2004 -67.4693 6.34059 -0.294761 -0.252094 -0.921719
51.1484 35.9758 12.2729 0.989555 -0.106271 -0.0973992
-12.6127 -35.975 11.8353 -0.943239 0.194332 0.269323
14.8032 -8.88466 29.9129 0.419072 0.836916 0.352066
-28.9134 51.2786 -37.5073 -0.472611 -0.436798 -0.765406
19.7775 68.0395 -27.2565 0.241296 0.722012 -0.648441
-12.1071 60.8237 35.9453 0.0320122 0.840784 0.540424
-20.1579 67.5027 -4.08451 -0.0367337 0.991404 0.125572
-22.8995 38.7204 40.6053 0.45858 -0.235856 0.856783
45.4523 34.2539 1.84951 0.61176 -0.569309 -0.549214
-19.8779 70.6986 -27.8199 -0.0333598 0.990073 0.136541
-50.4668 59.8207 -4.1224 -0.877116 0.334521 -0.34462
-51.5464 52.0039 11.7277 -0.886118 -0.235011 0.399456
-11.8766 28.4061 -31.3029 0.129646 0.0822306 -0.988145
27.1052 -37.3874 4.13933 0.642482 0.700036 -0.311717
28.034 43.8665 -10.6954 0.141958 -0.491217 -0.859392
4.15279 -44.1749 -12.9431 0.270915 -0.0070993 -0.962577
1.22222 26.633 -25.408 0.62637 0.339048 -0.701931
4.57149 11.7293 26.8182 0.297882 0.124365 0.946467
-11.7007 40.9884 39.3098 0.0290634 -0.695367 0.718066
-53.2769 51.9671 4.04776 -0.997186 -0.0595356 0.0455583
-4.00876 69.136 -35.9217 0.358494 0.651764 -0.668346
3.88836 43.3856 37.1243 0.143331 -0.593145 0.792234
20.2971 -18.7665 30.6232 0.215272 0.194359 0.957018
-3.36153 35.2985 22.0701 0.357549 -0.00285212 0.93389
11.8858 -29.1915 -10.4099 0.197407 0.598873 -0.776132
-12.5173 -20.7967 20.0392 -0.460432 -0.82796 0.320133
-12.8548 20.2333 -32.2555 0.0547319 0.000771453 -0.998501
-44.6369 12.0306 4.01951 -0.970366 -0.152165 0.187713
6.31949 -3.08773 -15.6039 0.223326 0.0499584 -0.973463
-11.4782 -52.0981 2.19148 -0.618189 -0.35537 -0.70111
12.0325 65.4731 20.0735 -0.0301556 0.991321 0.12796
27.9121 69.8135 -11.9004 0.103438 0.994326 -0.0248423
12.0424 43.6817 35.391 0.400336 -0.433871 0.807147
-4.50452 -43.1236 -12.4041 -0.34425 0.534152 -0.772123
-20.9319 -51.3356 12.0601 -0.646963 0.732041 0.213434
9.9585 20.034 -11.6275 0.875096 0.145901 -0.461433
