ply
format ascii 1.0
comment Generated by the CGAL library
element vertex 891
property double x
property double y
property double z
property double nx
property double ny
property double nz
end_header
10.5813 10.5171 28.0045 0.225892 0.139019 0.964182
24.472 20.9412 -13.7185 0.699306 0.646554 -0.304858
17.7961 21.0991 -21.0565 0.263283 0.716784 -0.64568
6.873 2.8239 6.7865 0.620484 -0.589464 0.517235
14.2222 24.624 -17.7465 0.562589 0.562004 -0.606337
18.8874 -3.58025 13.957 -0.130268 -0.770494 -0.623995
-6.63248 27.9582 -6.89175 -0.24582 0.938503 -0.242454
6.71564 14.0497 -24.4655 0.386455 -0.122981 -0.914072
28.0275 17.5892 -6.85 0.882029 0.45634 0.117383
3.62475 -3.06248 -24.6138 0.583112 0.216053 -0.783136
11.4172 24.4416 13.2967 -0.0402727 0.935166 0.351912
-6.789 0.56035 6.927 -0.494264 -0.133764 0.858959
9.59678 3.85318 4.99865 0.335595 -0.937934 -0.0874981
-3.23364 -6.62467 -28.1042 0.499762 0.122263 -0.85749
-10.3046 -4.0138 6.9085 -0.748903 0.263652 0.607974
-20.9479 3.56283 6.3955 -0.283552 -0.953997 0.0974046
3.45482 5.0407 -13.9185 0.414254 0.384748 -0.824841
-17.1301 3.5531 16.0071 -0.290562 -0.956178 -0.0360226
21.0978 -3.57688 17.8932 0.817159 -0.539111 0.203989
-3.72874 -0.1666 24.5635 -0.425926 -0.742694 0.516712
-10.2815 4.00832 -13.7713 -0.538614 -0.429674 -0.724758
6.97867 -13.7907 10.4365 0.357698 -0.20573 0.910894
14.4999 0.124112 10.7636 -0.293427 -0.763505 -0.575292
20.8427 0.48079 20.8707 0.640542 -0.222278 0.73505
-10.7544 -21.2265 0.533833 -0.63922 -0.687774 0.344042
-13.9146 -0.359 -10.017 -0.818505 0.287443 -0.497419
-7.34933 21.3703 -24.663 -0.33441 0.32852 -0.883315
-20.9226 3.55133 1.00283 -0.363437 -0.925427 -0.10723
-13.6638 3.68156 -10.0344 -0.490031 -0.787305 -0.374194
-13.826 7.07668 -17.4325 -0.270845 -0.832618 -0.483104
-3.20432 3.92189 27.8655 -0.306518 -0.392907 0.86699
-12.1758 -3.53758 -24.6111 0.000803794 -0.892676 -0.450698
-17.7038 -10.3114 -21.3094 -0.589 0.703871 -0.397045
-24.2977 20.7204 -9.69233 -0.821548 0.497798 -0.27795
10.294 10.6776 -20.8585 0.313505 -0.696588 -0.645353
14.1202 0.21685 -2.752 0.785327 0.59154 0.182599
13.9004 -3.18052 24.3575 0.412434 -0.303877 0.858812
-14.2906 18.0813 21.2978 -0.512907 0.464675 0.721806
17.5329 24.6194 -14.093 0.638968 0.594081 -0.488659
-14.2772 -10.2997 -24.7998 -0.424844 0.771406 -0.473751
-21.297 6.82161 21.1972 -0.60956 -0.380697 0.695347
20.1145 7.14974 -6.69858 0.288073 -0.847928 -0.445007
-3.56242 28.0251 7.0375 0.02581 0.995786 0.087998
17.57 6.31219 24.5556 0.532543 -0.0981175 0.840697
8.67344 1.84659 5.45739 0.708422 0.125112 0.694611
-20.9444 16.0247 -17.4016 -0.748734 0.0725733 -0.658886
-10.8179 0.0365 -19.9556 -0.196717 0.979618 0.0406342
-13.7519 -6.8931 -17.4455 -0.369465 -0.0683213 -0.92673
-24.7154 6.81004 -4.1995 -0.706632 -0.676844 -0.206286
-1.71587 3.31175 -17.1901 -0.0458571 0.791515 -0.609427
10.4942 24.1035 -20.9595 0.535743 0.438776 -0.721426
-24.574 10.2108 -10.7778 -0.844179 -0.298464 -0.445287
1.89766 -17.2809 10.347 0.0667761 -0.489291 0.869561
-21.2323 18.1629 14.2545 -0.727427 0.413479 0.547617
-24.312 7.22035 -6.4795 -0.723336 -0.665039 -0.185764
-7.19837 -24.6057 -3.047 -0.38156 -0.912493 0.147542
-10.6664 21.0432 21.2745 -0.266895 0.632146 0.727433
-24.5922 21.2248 -7.4195 -0.809484 0.555194 -0.191038
-12.8639 -7.55335 -18.8373 -0.32286 0.777504 -0.539675
-20.8339 24.4003 3.2787 -0.438235 0.858829 0.265261
-14.3805 21.4996 -21.232 -0.497866 0.399023 -0.770007
-9.92365 -20.5528 2.94965 -0.595384 -0.649002 0.473619
-1.86717 27.8489 -10.0159 -0.0939159 0.93769 -0.334541
24.327 20.9606 -7.68525 0.442653 0.879004 0.177232
-7.4333 28.137 -17.8711 -0.269783 0.914212 -0.302379
17.3881 4.00448 24.3861 0.543993 -0.124856 0.829748
3.04872 -0.266171 -20.4249 0.424954 0.68466 -0.592161
17.253 3.37544 3.2285 -0.129637 -0.935174 -0.329611
-17.589 9.37408 24.5372 -0.327821 -0.033736 0.944137
1.34851 27.8775 -10.7235 -0.0774422 0.936576 0.341802
8.25684 27.8667 -7.7585 -0.0221839 0.999013 0.0384841
10.5559 -3.3513 7.1345 0.53129 0.352974 0.770156
10.2431 3.23673 -9.63238 0.49089 0.849762 -0.192173
-6.76261 -10.6068 -28.6985 0.628106 -0.768894 -0.119518
9.54425 2.5631 -12.7535 0.509121 0.768681 -0.387201
-16.9969 24.0985 -17.0704 -0.55964 0.64341 -0.522328
21.0644 14.4605 21.1013 0.697357 0.225696 0.680261
-10.941 0.0483 -25.0147 -0.18703 0.976043 -0.111178
-5.89769 0.14897 -25.0165 0.0994382 0.959417 -0.263876
7.33397 0.43637 -17.7164 0.474045 0.573814 -0.667847
-4.54526 -0.399797 22.5392 -0.39394 -0.898008 0.195941
-16.086 -7.3536 -16.0536 -0.582138 0.366592 -0.725759
-10.2745 17.3035 24.3689 -0.472837 0.485588 0.735275
-24.8384 11.6899 17.9659 -0.809144 0.102647 0.578576
20.5299 24.1063 -9.8112 0.658947 0.659689 -0.361385
8.82107 -4.00307 24.9609 -0.0692025 -0.683252 0.726896
-2.08603 -24.4377 -13.8771 -0.0719929 -0.902848 -0.423889
21.1311 24.6989 -7.54771 0.704958 0.649938 -0.283928
7.31838 6.97205 -14.084 0.177038 -0.965241 -0.192268
-24.774 9.45433 17.8868 -0.834168 -0.173982 0.523349
16.1726 21.1873 -21.1686 -0.0668588 0.757887 -0.64895
-10.7964 24.7191 -21.1894 -0.407049 0.610561 -0.679357
-18.1233 -2.6491 -19.6186 -0.683764 0.728552 0.0409685
9.69709 -0.880846 -16.9282 0.570121 0.497763 -0.653601
10.6679 6.22213 28.0952 0.343573 -0.0437328 0.938107
1.50622 0.364962 14.9398 -0.079262 -0.877601 -0.472794
-10.7957 6.62326 24.6823 -0.547585 -0.303326 0.779836
20.0184 10.706 -13.358 0.175136 -0.926624 -0.33271
3.93084 -21.1063 7.09221 0.168313 -0.692163 0.701841
6.96811 -7.3974 10.4775 0.351371 0.239868 0.904987
7.403 16.2353 -24.6719 0.34758 -0.104754 -0.93178
-8.86075 -3.4805 -24.428 -0.00950307 -0.97449 -0.224228
0.622878 0.0549 -21.3437 0.200273 0.96592 -0.163978
4.74265 21.2007 24.7105 0.105985 0.701218 0.705025
-1.17403 21.2391 24.6666 -0.067435 0.689807 0.720846
-21.2306 6.76438 -11.0127 -0.522111 -0.738339 -0.426914
-17.7233 -6.68867 -6.6481 -0.777619 0.236804 0.582436
24.4345 20.7362 -6.61683 0.763715 0.645197 -0.0214618
13.6804 7.05083 -10.3694 0.136217 -0.962665 -0.233926
-18.8831 -6.22827 -8.69252 -0.718292 0.53728 0.442025
-12.9484 -0.293459 -22.8669 -0.219959 0.975501 0.00388365
10.2523 3.93307 27.9421 0.308958 -0.117553 0.943783
3.6402 -3.72095 -24.534 0.663209 -0.235124 -0.710542
-16.796 -4.34844 -8.52232 -0.74279 0.661214 0.105166
9.4908 -0.29286 13.6389 -0.237727 -0.791039 -0.563687
10.2375 -17.0078 -17.2963 0.620934 -0.440439 -0.648424
10.2501 3.89254 1.76983 0.928821 -0.311783 0.200207
-14.149 -6.27974 3.6791 -0.837736 0.195145 0.510016
-12.8126 -1.34558 2.13707 -0.760367 0.4589 0.459622
2.26964 3.12413 -17.0817 0.138906 0.832096 -0.536956
-11.186 0.0929576 -22.9465 -0.134173 0.990917 0.00896474
-24.3244 17.0575 10.129 -0.825247 0.343769 0.448096
-10.7411 -10.2452 -28.205 -0.518455 0.640706 -0.566304
11.235 28.2086 -14.7349 0.297428 0.920067 -0.254978
12.5093 2.59684 5.7942 -0.0915036 -0.945657 -0.312026
17.9181 10.3574 -14.3785 0.463524 -0.75781 -0.459206
-14.5166 -18.2309 -9.09728 -0.84262 -0.499904 -0.20022
-27.8342 7.47994 8.63281 -0.931787 -0.353411 -0.082905
-17.3802 -10.3115 -7.81034 -0.76219 -0.623333 0.174708
-9.35947 -5.96097 -19.8813 -0.50806 -0.197282 -0.838424
24.8546 13.4454 -14.4844 0.766501 -0.330338 -0.550775
-14.2869 -17.8849 -10.9296 -0.820304 -0.44064 -0.364607
6.80815 -13.6807 -20.8682 0.356739 -0.253387 -0.899184
14.7007 3.7218 3.8548 -0.212668 -0.9169 -0.337738
-6.06685 -13.8734 -20.9127 -0.0569945 -0.493727 -0.867747
-8.119 -2.56666 7.86236 -0.514486 0.41761 0.748936
13.6283 -16.8503 -13.4146 0.757744 -0.443434 -0.478738
17.5471 -3.4915 14.0625 -0.072587 -0.844699 -0.530297
24.7657 21.4391 -4.26828 0.841114 0.471609 -0.264787
-13.3333 12.3071 24.087 -0.406384 0.140174 0.902886
10.9239 -21.3635 -11.2673 0.577449 -0.745211 -0.333485
5.22093 1.87664 9.14206 0.288726 -0.919634 0.266292
9.74072 -1.1709 6.43123 0.526171 0.484918 0.698569
-7.68177 3.07742 24.9077 -0.484534 -0.519717 0.703649
11.3543 -3.96862 24.8517 0.173009 -0.522567 0.83486
5.40749 1.48912 12.3214 -0.106908 -0.871591 -0.478435
-11.1292 -18.4153 -14.7217 -0.695426 -0.428806 -0.576635
-1.90675 1.2375 9.15328 -0.124323 -0.558781 0.819944
10.6862 -3.20943 -17.7339 0.584162 0.427755 -0.689768
-3.32207 20.9569 24.4725 -0.193298 0.64606 0.738405
-7.65911 -21.411 4.21761 -0.450392 -0.711478 0.539393
-21.3855 3.47567 16.0395 -0.223341 -0.97288 -0.0601913
-1.75092 0.388827 15.1763 -0.0314752 -0.911795 -0.409437
24.264 0.201321 12.1475 0.806276 -0.588955 -0.0552389
4.38425 0.253775 14.5522 -0.125504 -0.825743 -0.549907
-9.37698 -1.31264 6.03023 -0.573764 0.462798 0.675732
7.31573 -11.7155 10.624 0.378776 -0.0878788 0.921307
7.22891 -6.66855 -21.0719 0.333286 0.135435 -0.933048
-14.3904 24.6072 7.36912 -0.500476 0.831276 0.241877
6.58478 -4.4672 -20.8305 0.401334 0.231599 -0.886168
8.5318 -2.35186 7.9127 0.461578 0.445508 0.767117
-6.30927 -20.5561 -17.1601 -0.380666 -0.572515 -0.726168
-5.3144 1.2588 8.35101 -0.314171 -0.651917 0.690146
21.4989 21.2505 -17.855 0.637508 0.55647 -0.532846
16.927 -0.210025 10.1812 -0.241 -0.782841 -0.573654
-15.9064 2.33565 5.16573 -0.106657 -0.994194 -0.0142307
-9.88657 4.28324 24.1216 -0.538527 -0.439406 0.718965
28.2901 15.5375 -6.02093 0.981553 -0.0153555 0.190571
-1.6866 10.7342 -24.3391 -0.0153368 -0.556688 -0.83058
18.0357 6.86538 -7.39126 0.22921 -0.919698 -0.318778
12.0683 0.663374 11.1896 -0.262964 -0.806093 -0.530155
-2.24632 0.225049 -21.9955 0.130791 0.964147 -0.230898
11.6539 1.42007 1.66137 0.699132 0.633593 0.331322
-18.0178 6.79559 -14.3018 -0.378549 -0.811153 -0.445792
24.3676 3.88543 17.3559 0.885758 -0.204685 0.416577
28.0684 13.3895 -6.70317 0.956558 -0.257304 0.137081
10.726 28.0778 1.0945 0.312222 0.94812 0.0598893
7.2475 -9.02528 10.6807 0.391719 0.0436314 0.91905
14.2372 28.0768 -11.0404 0.338262 0.918268 -0.205822
-16.3081 -8.79263 -19.7103 -0.350064 0.871028 -0.344625
1.87914 27.8878 -10.2509 -0.018942 0.990823 -0.133835
21.8101 -1.27809 18.7989 0.788359 -0.356346 0.501506
24.9603 10.3219 -10.8503 0.317293 -0.846209 -0.428084
-27.012 12.0451 5.24116 -0.997579 0.0543475 -0.0433906
2.02909 1.42848 12.8357 -0.00963571 -0.904992 -0.42532
-2.21867 -1.70922 9.82775 -0.15964 0.416522 0.895
10.0358 27.8131 -16.9445 0.318756 0.852076 -0.415163
-3.87221 -21.2402 -17.6725 -0.184657 -0.615625 -0.766099
6.14891 -3.69308 24.7335 -0.231275 -0.800852 0.552402
1.74975 1.38934 9.23756 0.188367 -0.534967 0.823607
-9.93367 -7.48789 -23.8407 -0.447233 0.854112 -0.265473
-14.5119 3.1456 -7.8452 -0.49208 -0.822324 -0.285727
5.37703 24.1694 16.8649 0.148228 0.800001 0.581401
-6.53066 0.126994 18.6343 -0.245746 -0.964755 -0.0941112
4.40639 -2.48886 -22.8719 0.808076 0.412918 -0.420133
-4.22696 -3.46117 -24.4325 0.0346733 -0.820153 -0.571093
-14.6712 24.9654 -18.205 -0.477174 0.685669 -0.549693
-15.8965 2.63139 19.0686 -0.111173 -0.976108 -0.18669
-4.20894 6.09661 28.2392 -0.343355 -0.259718 0.902582
-11.1694 0.478673 -14.8272 -0.615702 0.664064 -0.424181
-1.74173 -5.2711 11.1229 -0.135139 0.225721 0.964773
-15.4737 -14.0743 -24.2698 -0.0405902 -0.981678 0.186175
17.665 -11.5065 -2.62823 0.979355 -0.12768 0.15672
-16.2665 24.4144 6.51505 -0.0561511 0.988797 0.138303
-28.1719 11.2257 11.1831 -0.972717 0.0772281 0.218762
-20.3018 16.5714 16.652 -0.65296 0.520082 0.550598
17.175 12.8491 24.2865 0.518142 0.162408 0.839734
14.2589 0.288987 -5.0634 0.812572 0.582829 -0.00610628
15.4919 -3.1121 14.4079 -0.248578 -0.740666 -0.624197
-19.339 8.71574 23.2215 -0.549673 -0.127736 0.825556
-8.76451 -5.41246 8.59302 -0.536919 0.222457 0.813776
-12.7259 -0.778052 -15.9659 -0.422033 0.906578 0.00198799
7.46549 -24.7386 -7.58269 0.360341 -0.884257 -0.297058
21.8423 21.6205 14.8134 0.554302 0.661794 0.504755
-15.6982 -2.14056 -15.9871 -0.427577 0.883326 0.192126
-10.0094 -16.5975 6.59912 -0.601208 -0.409319 0.6863
11.3557 6.93828 -10.9963 0.0747741 -0.983909 -0.162274
8.9743 24.0792 16.2736 0.023036 0.96221 0.271333
-10.9714 -12.0127 7.49027 -0.639177 -0.127632 0.758395
23.8752 15.682 -16.5326 0.790717 -0.0938239 -0.60495
-1.87694 1.48234 12.4283 0.0299905 -0.950108 -0.310475
11.1644 -15.0648 7.52293 0.59998 -0.320924 0.732825
-8.09269 -21.7803 -14.7529 -0.491404 -0.660095 -0.568151
-24.8324 21.5397 -1.64345 -0.814941 0.579153 0.0212858
-16.9825 -10.4065 -12.0277 -0.20543 -0.976774 -0.0609131
-24.9963 6.51112 -1.35224 -0.745384 -0.657533 -0.109785
10.2232 2.93268 1.96757 0.868988 0.355734 0.343967
-10.0361 -16.7786 -17.0005 -0.623667 -0.407223 -0.66724
11.9734 21.8507 21.9598 0.298403 0.694388 0.654814
8.75928 -1.82861 15.9438 -0.258775 -0.771514 -0.581207
16.9487 20.4409 20.6165 0.436835 0.600056 0.670155
13.8604 -0.2163 -10.2715 0.740907 0.620585 -0.256772
4.36667 -24.7358 -11.1588 0.268331 -0.906353 -0.326377
-1.74722 6.52979 -18.7119 0.0834346 -0.939109 -0.333335
-4.48441 -6.0522 10.7531 -0.275075 0.178137 0.944776
9.91706 -24.0745 -5.86087 0.600609 -0.739897 -0.303022
-5.35969 11.0028 -24.2039 -0.140254 -0.509874 -0.848738
5.36691 2.50744 -16.6361 0.324125 0.758726 -0.565046
-7.51468 28.1291 -4.49072 -0.283381 0.951862 -0.116847
-12.3678 5.87223 -15.8338 -0.208334 -0.879226 -0.428437
-1.07353 -5.65273 -23.8992 0.466492 -0.478564 -0.743883
-21.3157 21.2551 10.8383 -0.64121 0.655581 0.398828
-8.53897 0.142608 -25.3316 -0.0256631 0.982736 -0.183224
-18.4041 14.2249 21.3972 -0.109764 0.834783 0.539526
24.8745 21.2694 -11.5334 0.666314 0.73889 -0.100335
1.89933 21.2214 24.8472 -0.0150629 0.699525 0.714449
-6.44863 12.614 27.8153 -0.378128 0.135593 0.91577
6.14441 -3.74428 20.2684 -0.319626 -0.849752 -0.419238
-11.1119 -9.07215 7.55651 -0.657557 0.052938 0.751543
-16.0714 -6.63194 -16.5637 -0.277295 -0.831224 -0.481844
-12.6608 1.33273 1.83083 -0.669676 -0.641758 0.373739
24.2806 7.27331 -2.84988 0.655621 -0.651222 -0.382192
23.5985 19.4424 -16.2715 0.781376 0.276923 -0.559253
-13.6763 -0.390891 -0.988318 -0.857783 0.42472 0.289519
-21.4959 9.72775 -14.5822 -0.666881 -0.510001 -0.543294
5.25174 27.9199 -9.33997 -0.00615115 0.999957 0.00699395
15.5031 22.568 -19.1102 0.199846 0.797135 -0.56977
15.5701 24.6587 14.7373 -0.00755066 0.975028 0.221953
-10.628 -14.2721 7.1735 -0.599401 -0.256953 0.758086
-24.8931 18.2871 -11.2487 -0.862041 0.313844 -0.39798
19.2411 0.691735 7.997 -0.135516 -0.837263 -0.529741
-10.2699 2.85024 -13.6661 -0.746725 0.152139 -0.647499
14.5883 -0.96437 24.8454 0.456344 -0.282031 0.843925
24.6245 21.2006 10.7362 0.743866 0.614027 0.263883
-20.4097 3.70545 -2.26014 -0.330614 -0.928308 -0.170113
4.02578 -21.2537 -17.6879 0.288371 -0.702303 -0.650856
-24.3027 7.1064 17.329 -0.753366 -0.377213 0.538655
7.54337 -28.5512 -4.2288 0.56629 -0.638704 -0.520934
-18.4076 -9.65729 -19.039 -0.624571 0.692706 -0.360651
15.726 -1.39967 12.2139 -0.251677 -0.757959 -0.601795
28.0976 13.0945 -7.95588 0.991702 -0.121136 -0.0430427
-15.1689 -2.37075 -12.1063 -0.703335 0.71084 0.00513692
-4.26318 -0.0944294 16.9585 -0.12791 -0.964686 -0.23026
9.01043 26.5049 -19.5771 0.377347 0.713247 -0.590668
-16.0288 4.09806 -8.96315 -0.263476 -0.928628 -0.261211
-14.3971 -2.72715 0.812 -0.822982 0.44579 0.352097
5.5045 -4.00082 22.583 -0.34527 -0.938504 -0.000152489
-12.4464 -5.34274 5.37556 -0.728159 0.241052 0.641622
3.92127 -3.34962 23.3029 -0.331384 -0.929094 0.164223
17.388 -13.5018 -5.37901 0.968755 -0.24354 -0.0469254
4.89714 -5.89234 10.8689 0.266693 0.231816 0.935487
13.8408 -17.1649 3.19893 0.710106 -0.506069 0.489534
-4.89875 -12.0272 10.9384 -0.325069 -0.115296 0.938636
-18.161 24.8413 -14.6571 -0.527538 0.729067 -0.436079
14.459 21.2314 21.2402 0.351382 0.547993 0.759101
8.87787 -4.33992 19.4984 -0.332297 -0.81326 -0.477689
-4.29928 -24.7501 0.646583 -0.28604 -0.905847 0.312446
28.043 14.5999 7.54528 0.99019 0.112308 0.0831314
16.855 1.29038 24.1645 0.540174 -0.214328 0.813803
-7.43255 -24.6857 -5.44679 -0.39895 -0.916665 0.0237733
-16.3351 7.52162 -16.6179 -0.357598 -0.756201 -0.547981
7.84948 -25.2535 0.68557 0.470312 -0.609931 0.637801
2.00629 24.1857 -24.2769 0.106991 0.530709 -0.840774
15.8682 -4.56598 16.0424 -0.203404 -0.772399 -0.601686
-2.0789 16.8927 27.7288 -0.151273 0.434196 0.888026
-11.8745 1.91169 -12.0634 -0.831856 0.226492 -0.506673
17.6622 -9.08707 -7.79959 0.984335 0.0108822 -0.175973
-13.445 -16.0078 -13.1424 -0.791655 -0.30914 -0.526986
1.71126 -24.4211 3.3667 0.00775574 -0.838933 0.54418
6.29156 -20.7043 6.65724 0.304835 -0.66085 0.685823
-17.8904 -2.78076 -21.9729 -0.882855 0.300628 -0.360819
-14.3242 -18.1041 -2.20005 -0.840567 -0.505281 0.19529
-21.5418 11.7949 21.4591 -0.611373 0.256812 0.748512
13.3278 -12.3833 6.29217 0.72698 -0.137694 0.672711
21.2105 2.69743 21.2099 0.684746 -0.176148 0.707174
18.1281 18.1779 21.5089 0.515102 0.478355 0.711229
16.3855 -8.70188 1.70048 0.912248 0.0757867 0.402568
21.5882 13.3095 -18.3209 0.655182 -0.482671 -0.581176
-5.21673 -25.1193 -1.90885 -0.31107 -0.932735 0.182323
-18.8854 3.05765 18.8708 -0.259563 -0.965 0.0374423
-4.02492 -14.4296 -21.1094 -0.209083 -0.295542 -0.932169
25.0486 21.6119 8.57375 0.745853 0.621325 0.240122
-22.5564 3.99742 8.59178 -0.0955604 -0.994802 -0.0351763
-25.1583 14.6283 15.159 -0.618089 0.708316 0.340961
7.67825 -28.5331 -2.50304 0.619591 -0.729989 0.288484
1.44665 -3.25006 10.6466 0.0652595 0.340085 0.938128
8.3373 28.2202 4.8066 0.165443 0.97369 0.156706
11.5296 -18.8462 4.52447 0.627947 -0.556697 0.543848
20.3133 19.4826 -20.1701 0.6734 0.3122 -0.670122
-1.85297 15.7232 -26.2218 -0.0484481 -0.146376 -0.988042
5.47823 -28.5981 -1.91803 -0.208655 -0.861741 0.462456
-26.4108 15.7631 5.31216 -0.942326 0.256612 0.214877
-1.27796 28.0927 7.49673 -0.0675848 0.975658 0.208622
25.732 9.68279 -8.58279 0.413447 -0.842008 -0.346533
8.76858 1.08925 11.9102 -0.185675 -0.823907 -0.535446
24.7332 8.71036 17.8556 0.842426 -0.00651391 0.538773
14.4107 -18.0916 0.989638 0.800404 -0.500328 0.330189
-1.67115 24.1886 -24.3421 -0.0665982 0.519469 -0.85189
20.3299 -2.12446 20.2109 0.690229 -0.344241 0.63646
11.2563 -21.7703 1.20409 0.653561 -0.643846 0.397896
14.4905 -5.81163 4.23777 0.807216 0.249239 0.535054
9.18109 2.51937 9.30513 -0.1608 -0.879406 -0.448095
-12.262 2.0213 8.89195 -0.0345385 -0.998409 -0.0445728
15.32 -15.5833 1.74375 0.852041 -0.346554 0.392335
-7.9528 18.1432 24.9506 -0.362759 0.510344 0.779715
-7.64247 -6.25506 -25.7178 -0.602132 0.715693 -0.353866
-11.1294 24.8286 11.2233 -0.402787 0.836456 0.371623
24.9343 21.2021 -9.3937 0.467821 0.871646 0.146206
24.8025 18.0988 14.5715 0.782853 0.423309 0.456015
-6.67753 -8.60939 10.3407 -0.396812 0.0498001 0.916548
-18.17 9.97952 -17.8732 -0.503178 -0.492769 -0.709923
-14.9254 -14.1431 -25.2405 -0.0820224 -0.995667 -0.0438109
-16.119 -5.46152 -1.66796 -0.95325 0.206416 0.220694
-19.279 25.1892 1.65411 -0.126296 0.972481 0.195781
-6.10198 0.659121 23.3628 -0.414766 -0.797246 0.438598
-1.38394 -21.2258 7.24974 -0.110662 -0.678956 0.725791
28.0914 9.9306 5.80882 0.989758 -0.133572 -0.0503745
1.02865 -15.6427 -21.3321 0.0010113 -0.31476 -0.949171
24.8905 18.7018 -14.7102 0.821444 0.222572 -0.525063
-21.5456 24.8996 -5.09217 -0.592702 0.804565 -0.0371345
-9.75866 27.8988 -16.7828 -0.290596 0.931494 -0.218798
-7.5996 24.7507 14.3033 -0.273692 0.852626 0.445109
-10.9797 28.0969 -14.6073 -0.237425 0.954752 -0.179102
26.3671 19.7146 -8.64173 0.715759 0.695669 0.0611018
-5.91661 -20.4146 6.46079 -0.349008 -0.63702 0.687313
-21.5704 9.02471 21.5722 -0.665612 -0.138432 0.733347
-25.7134 8.66733 -5.28168 -0.835143 -0.497815 -0.233916
-12.6284 -8.70477 -23.3042 -0.390992 0.862421 -0.32149
-5.82789 20.4974 24.0463 -0.258031 0.635396 0.727799
-16.6855 19.458 -20.4446 -0.574859 0.258567 -0.776325
8.14526 -3.12993 18.0516 -0.296895 -0.773662 -0.559732
-13.6657 0.993776 -1.44561 -0.940764 -0.273528 0.200364
-9.20199 -14.0877 -21.3061 0.0303305 -0.952263 -0.30377
-11.4399 8.86585 24.9642 -0.483723 -0.16987 0.858578
7.35092 18.5515 -24.71 0.365286 0.0870758 -0.926814
8.04134 2.39754 28.242 0.204714 -0.216936 0.954479
-5.28961 1.30073 12.7408 -0.00314877 -0.967287 -0.253666
-1.60276 -1.10844 19.1199 -0.20088 -0.940512 -0.274014
-8.58212 0.429995 -19.2338 -0.214349 0.968588 -0.126065
1.98722 24.3097 17.2459 0.0257915 0.810689 0.584909
7.40894 -8.80765 -21.1411 0.387257 0.0267122 -0.921585
-1.18121 -3.18492 10.6243 -0.0764586 0.28295 0.956082
9.19157 1.25562 27.6296 0.241206 -0.279798 0.929265
4.70762 13.1802 -24.8152 0.226415 -0.360622 -0.904814
28.2891 15.6939 -8.0557 0.985726 -0.00581226 -0.168257
24.6182 6.0607 17.7313 0.851129 -0.128361 0.509022
19.603 3.24854 2.90687 -0.0579112 -0.926159 -0.372661
-4.06407 -14.6484 10.7321 -0.304133 -0.259254 0.916674
-17.123 -8.99402 -5.11955 -0.981023 -0.0475763 0.187965
15.7012 26.9216 1.75571 -0.130178 0.975861 0.175357
-1.61102 5.08682 -16.4192 0.171717 -0.369782 -0.913113
14.4616 -5.79731 -14.6669 0.804352 0.197803 -0.560261
-24.7661 21.4647 -5.179 -0.808923 0.580055 -0.09581
1.59103 22.4777 -25.1842 0.0941108 0.404042 -0.909886
18.8471 15.923 -22.0013 0.581696 -0.135404 -0.802057
-24.752 21.3384 1.29543 -0.811541 0.570953 0.124148
15.5774 11.9601 25.3941 0.486796 0.156337 0.859412
-5.01878 -22.0782 5.05785 -0.31532 -0.741792 0.591876
-4.89355 12.1549 28.4473 -0.305558 0.118709 0.944745
-1.70715 12.4529 -25.2627 -0.00959691 -0.425039 -0.905124
-12.8379 -12.2959 5.46447 -0.756121 -0.161634 0.634157
-20.4675 3.76505 9.35895 -0.384942 -0.90816 0.164517
-17.0487 15.8438 -20.7336 -0.574631 -0.0356881 -0.817634
22.9054 2.27137 5.3112 0.24357 -0.861142 -0.446215
10.7228 8.49924 28.0833 0.362139 0.0337146 0.931514
-15.9305 2.36017 8.76664 -0.179263 -0.983197 0.0344691
23.9431 23.9222 1.68358 0.730855 0.681797 0.0316771
10.8087 28.0807 -0.913781 0.299978 0.953814 -0.0158667
-5.28657 27.3356 8.7409 -0.156003 0.956149 0.247877
25.7491 9.30148 -5.22445 0.737016 -0.662356 0.134504
-25.3862 19.1645 -8.78691 -0.871873 0.421297 -0.249693
5.36931 0.409184 27.8389 -0.0143365 -0.421121 0.906891
-5.41576 -1.96107 8.95288 -0.364737 0.407927 0.836996
-17.8824 -3.12447 -16.4009 -0.515663 0.805122 0.293038
-5.61026 -8.49777 -28.9453 0.353558 0.000841201 -0.935412
13.6754 -20.5768 -5.29729 0.745024 -0.663615 -0.0674883
-17.7758 -8.11244 -6.65529 -0.789034 -0.0838725 0.608597
-16.7779 16.3746 20.2835 -0.588959 0.381628 0.712382
7.55909 14.4372 28.163 0.24321 0.262753 0.933707
-15.6405 8.96005 24.7182 0.017602 -0.0200978 0.999643
25.8004 12.3177 -12.2165 0.722972 -0.442498 -0.530572
-5.05848 6.39761 -18.8562 0.0155267 -0.907704 -0.419324
22.594 22.6348 -8.71892 0.623037 0.767953 -0.148566
-15.9711 2.54462 12.3095 -0.291855 -0.952878 0.0827268
-8.91582 0.303458 -23.0094 -0.0545683 0.998135 -0.0273745
15.2813 25.6043 -15.4455 0.555094 0.671977 -0.490222
-8.83582 1.87749 8.56231 -0.0632678 -0.997248 0.0386471
-1.57202 1.74319 -19.136 -0.0145679 0.770116 -0.637738
1.72217 28.1504 7.69888 -0.0070912 0.97622 0.216668
12.2036 3.88085 4.87694 -0.156358 -0.939648 -0.304325
10.1078 -24.1557 -0.898337 0.723227 -0.60395 0.334943
-18.8595 3.16224 -1.56361 -0.22855 -0.962874 -0.143663
14.4139 -14.8869 4.00035 0.787259 -0.309743 0.533181
-16.4989 -12.0563 -8.70235 -0.907054 -0.371792 -0.197547
8.10033 6.24159 -11.6594 0.410494 -0.808636 -0.421429
1.69935 17.2187 27.8866 -0.01287 0.397691 0.917429
-21.3893 21.605 -14.5273 -0.701948 0.509175 -0.498007
10.215 -20.7129 -13.4325 0.526843 -0.720906 -0.450257
7.60197 28.1935 -18.023 0.296216 0.877097 -0.378096
5.11709 -2.63439 18.8929 -0.262006 -0.836853 -0.480655
12.5461 -4.04896 16.858 -0.294486 -0.748387 -0.594302
-15.5946 27.1231 -8.55899 -0.0841607 0.989165 0.120286
28.041 14.364 3.0267 0.994531 0.0378892 -0.0973318
5.65352 -16.4131 -20.3027 0.295413 -0.372649 -0.879695
-18.4143 -10.9248 -16.2987 -0.294396 -0.892893 0.340696
-12.174 2.73257 22.0304 -0.0273987 -0.757465 0.652301
-13.8872 1.42106 -5.55648 -0.977118 -0.16349 -0.13606
11.2773 -18.4966 -14.9712 0.639428 -0.545254 -0.542061
14.5583 -2.33181 1.26497 0.822876 0.44711 0.350666
-14.2836 -8.59363 3.94766 -0.814854 0.0713262 0.575261
8.24557 -21.761 4.3784 0.427103 -0.680593 0.595295
-26.4458 8.70569 1.62791 -0.913036 -0.40478 0.0501821
-18.1867 3.2282 11.7582 -0.393861 -0.899925 0.187104
1.6419 -0.5039 16.4668 -0.117431 -0.870701 -0.477588
4.45692 -14.8197 -21.6341 0.249068 -0.346238 -0.90448
-27.1452 12.2926 -5.27702 -0.958947 -0.202351 -0.198684
12.2009 4.70578 1.58517 0.0401976 -0.973658 -0.224444
21.4451 5.39208 21.4488 0.674902 -0.0892278 0.732493
20.4572 15.5874 -20.4698 0.714712 -0.163312 -0.680085
16.4732 23.8189 -16.3531 0.52087 0.691779 -0.500136
-4.11282 14.5084 28.2038 -0.256252 0.270753 0.927916
11.3558 -12.0587 -18.3074 0.666286 -0.164269 -0.727378
-16.5392 -8.86467 -1.74985 -0.978349 0.0191135 0.206079
5.37395 2.11064 28.5093 0.0628454 -0.314156 0.947289
8.65493 28.6573 -15.484 0.20542 0.958042 -0.199897
-11.9775 -19.3947 -12.6447 -0.726397 -0.496438 -0.475286
-8.85214 27.8126 -11.3553 0.0272544 0.966585 0.254895
8.62588 1.25862 -15.7532 0.496825 0.653935 -0.570556
1.74892 15.4705 28.5621 0.00261647 0.333347 0.942801
-5.17271 1.37314 -19.042 -0.203542 0.834423 -0.51216
17.6854 24.6021 14.2485 0.33922 0.867019 0.364977
-8.75825 -12.1501 -26.1274 0.510861 -0.849744 -0.130216
-23.4744 19.5914 9.18159 -0.782932 0.489815 0.383534
12.2854 -5.4033 18.9546 -0.306722 -0.817219 -0.487929
12.9844 -5.22255 -16.2938 0.727864 0.246356 -0.639939
-10.7891 -6.16087 7.36247 -0.632297 0.20487 0.747147
-21.8909 21.9913 8.39302 -0.633976 0.698072 0.33282
-20.4436 24.0178 -12.5091 -0.638976 0.68376 -0.352395
-4.93679 9.09051 28.495 -0.369203 -0.092342 0.92475
-24.7895 18.2847 7.85696 -0.853753 0.405034 0.32719
5.32284 -1.90015 9.13972 0.305593 0.421522 0.853775
-13.3727 1.9055 -8.79545 -0.934264 -0.116681 -0.336951
12.6685 28.2034 -6.245 -0.0966983 0.970464 0.221016
6.57644 -24.2885 -10.1268 0.357362 -0.8896 -0.284437
1.65515 29.0947 1.76574 -0.00666277 0.994543 0.104112
-1.47392 -21.4908 -18.0071 -0.109901 -0.659396 -0.74372
14.7094 -12.1529 4.59203 0.821113 -0.121744 0.557631
1.78265 -16.9891 -20.7924 0.0650126 -0.340352 -0.938048
-26.1881 12.2329 -8.61202 -0.915164 -0.23217 -0.329502
-5.23381 28.7499 -1.79549 -0.168796 0.985651 0.000233958
27.8015 16.4312 5.05085 0.982782 0.184712 -0.00455474
-2.78225 -7.70399 -25.8639 0.675725 -0.679933 -0.284757
-5.15343 25.7445 -22.5526 -0.208133 0.684121 -0.699042
13.4404 -8.95944 6.34851 0.750928 0.0616302 0.657502
-7.76393 13.3509 -24.7668 -0.262209 -0.302846 -0.916259
-18.1336 3.38316 -3.98955 -0.199757 -0.95973 -0.197522
-22.1539 22.4132 -11.9354 -0.737969 0.582818 -0.340184
4.72064 28.133 7.50019 0.0634369 0.970397 0.233033
-7.90345 28.2049 -1.74422 -0.250959 0.9679 -0.0137824
24.912 2.42313 15.1349 0.902749 -0.319303 0.288254
21.2217 -3.7697 16.1903 0.711672 -0.702156 -0.0223625
-24.1719 20.564 5.98683 -0.796313 0.543335 0.265844
21.5549 8.88031 21.5085 0.666347 0.0196038 0.745384
-5.54615 2.77815 -16.8407 -0.262206 0.707492 -0.65628
-1.58109 -15.2493 11.0832 -0.14396 -0.289671 0.946238
11.9938 9.76879 -18.5128 0.366968 -0.785291 -0.49865
-13.2767 20.2997 20.3003 -0.440717 0.620957 0.648214
-27.4009 12.6235 12.4247 -0.911326 0.331602 0.243979
16.1611 -8.7965 -12.3284 0.902704 0.0198384 -0.429804
12.6907 -19.6937 1.92437 0.695013 -0.589115 0.412189
15.8455 -12.2203 -12.3303 0.884609 -0.172456 -0.433273
-20.3729 7.51842 -13.1932 -0.518388 -0.709114 -0.477945
-19.0312 -8.84228 -12.2439 -0.79433 -0.404085 -0.453602
-8.86926 0.832939 19.0635 -0.311542 -0.94832 0.0602551
-1.83235 28.4913 -19.0501 -0.0700846 0.948296 -0.309553
26.6733 15.8251 12.2684 0.91567 0.227264 0.331511
-19.4062 5.0672 -8.82673 -0.335909 -0.895475 -0.292044
-12.0467 -15.4664 5.09613 -0.706415 -0.362632 0.607846
-19.42 3.87386 12.4385 -0.284439 -0.951591 0.11649
13.5493 -20.4078 -1.45502 0.752157 -0.631128 0.189572
14.7399 28.2073 -8.40902 0.242723 0.968853 -0.0490811
-8.49176 -13.1541 -22.984 0.309538 -0.851481 -0.423279
12.4145 -15.7878 -15.7435 0.702672 -0.369245 -0.608202
-1.69659 -8.88172 11.7041 -0.132741 0.0603356 0.989313
11.8102 5.65998 -5.12106 0.337643 -0.917639 -0.209607
26.9415 12.2319 -4.85968 0.886364 -0.276339 0.371478
-13.0376 -19.6793 -1.67194 -0.769887 -0.595523 0.229406
11.8407 18.2142 25.0603 0.347889 0.543989 0.763577
-7.56677 -18.1584 7.4258 -0.458343 -0.488901 0.742225
5.25431 -19.0957 8.43414 0.247206 -0.59972 0.761068
-22.4032 15.7411 -15.7905 -0.771494 0.0157706 -0.636041
-15.3856 -8.7641 1.89126 -0.909828 0.047287 0.412283
1.92021 29.1679 -15.5884 -0.0230475 0.999392 0.026166
-14.2327 -11.6905 3.84097 -0.821651 -0.127392 0.555573
12.4488 1.72382 -1.56661 0.741141 0.654517 0.149389
18.2421 25.2118 -11.9037 0.633727 0.676197 -0.375696
5.09604 15.2736 28.3639 0.143577 0.301729 0.942521
-14.9 12.7188 -21.4667 -0.474831 -0.298675 -0.827846
-18.9908 3.73955 14.8754 -0.0679069 -0.989022 -0.131241
-20.4561 19.8516 -16.9043 -0.68838 0.337028 -0.642296
12.2717 1.71808 26.6995 0.38205 -0.228759 0.895381
1.73141 -26.4579 -1.79574 -0.283184 -0.953458 0.103558
-2.16294 -17.0664 10.2276 -0.180866 -0.467191 0.86546
18.3089 21.6963 18.1849 0.466214 0.622412 0.628688
-11.1765 -18.2431 4.10101 -0.678241 -0.521023 0.518192
12.9768 24.6096 14.4912 -0.0598701 0.979244 0.19364
-25.203 9.4595 -8.39549 -0.818095 -0.467941 -0.334292
5.28109 28.9679 1.77632 0.0669798 0.993554 0.0914576
-6.42188 8.55492 27.7555 -0.451922 -0.167963 0.876102
-12.316 23.1126 15.7878 -0.125488 0.959224 0.253263
5.46206 5.27693 29.2102 0.139151 -0.137479 0.980682
1.87306 12.1251 29.3957 0.0113473 0.16477 0.986267
-11.1677 15.0523 24.8511 -0.48779 0.283308 0.82571
16.3601 27.8465 -4.80925 0.198999 0.979883 0.0151284
-15.5153 9.0897 -18.8625 -0.423705 -0.607775 -0.671628
-4.90276 28.219 4.83398 -0.140341 0.977839 0.155357
11.8567 1.04084 -12.023 0.665013 0.655474 -0.357926
-22.0312 6.19382 -8.52103 -0.515558 -0.784063 -0.345608
-5.16892 28.7808 -15.5154 -0.0734356 0.996448 0.0412066
-19.0567 5.59814 22.3806 -0.558863 -0.369766 0.742257
12.5343 -0.75901 12.8949 -0.260618 -0.750159 -0.607734
-18.7833 -5.90359 -12.5268 -0.924786 0.211215 -0.316478
-17.98 18.3681 17.9919 -0.630133 0.449152 0.633399
9.42297 20.5641 24.138 0.241664 0.592962 0.768111
8.71957 8.66574 28.6954 0.262809 0.041329 0.963962
1.92176 11.0166 -24.2104 0.14578 -0.543793 -0.826461
28.0599 12.6625 3.00987 0.991543 -0.0036816 -0.129727
16.4886 10.7992 -16.6728 0.325123 -0.877686 -0.352082
19.0496 -4.57333 15.6808 0.14533 -0.866156 -0.478176
25.0754 2.95318 6.04481 0.644601 -0.685206 -0.339091
-20.3303 11.5954 -16.9927 -0.635719 -0.357347 -0.684226
-7.32035 -24.66 -8.41714 -0.362672 -0.926782 -0.0976969
-5.48587 23.9162 16.5933 -0.2207 0.798484 0.560103
12.8071 23.1801 -20.0484 0.472188 0.530856 -0.703726
-20.4388 20.3759 13.2771 -0.652887 0.571744 0.496837
12.3275 1.93585 8.97503 -0.244469 -0.837857 -0.488089
8.80151 -15.7872 8.80881 0.472812 -0.360684 0.803963
-8.46178 5.4569 25.6501 -0.500918 -0.349559 0.791763
12.5412 1.59083 -8.91425 0.685035 0.700556 -0.199871
13.2749 -1.04886 -12.7852 0.727663 0.555638 -0.40221
-21.3171 24.7317 -8.04547 -0.613452 0.777819 -0.136658
-16.9121 3.67615 -6.3295 -0.240061 -0.945123 -0.221615
19.3108 2.2234 5.18822 -0.113731 -0.890148 -0.44125
-12.9741 -8.83129 5.63984 -0.755406 0.0558288 0.652875
-1.56573 8.83007 29.4084 -0.173871 -0.0349941 0.984146
-15.8478 25.8283 -1.77169 0.0191277 0.984769 0.172814
27.3729 11.8647 -9.17548 0.866071 -0.364048 -0.342623
-10.9747 -21.4711 -11.4415 -0.681969 -0.653358 -0.328698
-5.47422 0.405187 15.8956 -0.117757 -0.963647 -0.239827
-25.765 19.4392 1.88986 -0.877301 0.455835 0.150189
16.0744 -15.8134 -8.83777 0.896864 -0.37501 -0.234526
-13.1169 23.9202 -20.4563 -0.450616 0.574809 -0.683037
14.9122 15.3071 24.9704 0.445627 0.27919 0.85057
-15.6446 2.85538 22.357 -0.191607 -0.805409 0.560894
16.1523 -1.9291 23.5768 0.496036 -0.297029 0.815918
-11.4768 12.2609 25.1855 -0.512308 0.055827 0.856985
8.65047 22.1834 22.6541 0.143058 0.812632 0.564946
4.633 -15.0994 10.8407 0.220972 -0.289378 0.93136
13.3055 -8.84037 -16.6676 0.753895 0.00851415 -0.656939
8.22936 24.9012 14.6675 0.242912 0.818085 0.521277
-5.65049 23.6573 -24.0208 -0.22436 0.479269 -0.848507
-16.1823 -12.4542 -23.1261 -0.799548 -0.480074 -0.360905
-28.175 9.44693 11.029 -0.952544 -0.144974 0.267661
-25.6442 14.9763 12.2125 -0.580994 0.807704 0.100302
17.5468 -6.80196 -3.09575 0.978737 0.165509 0.121167
26.9239 12.0539 -1.78909 0.942118 -0.161174 -0.294001
-2.02811 -24.2517 3.05036 -0.146867 -0.87007 0.470541
20.4941 16.7765 20.4243 0.582493 0.412975 0.70011
-15.6805 -15.2036 -8.75484 -0.93631 -0.297828 -0.186067
12.2201 -2.48698 15.1299 -0.295978 -0.736092 -0.608741
26.5495 5.18329 12.255 0.944065 -0.257923 0.205466
19.179 5.17296 23.2611 0.598651 -0.0817524 0.796827
13.4517 -1.4231 2.4076 0.779583 0.464214 0.420424
16.8689 -5.41227 -1.67549 0.934354 0.292288 0.203841
-25.1299 6.10782 15.0355 -0.777661 -0.459509 0.429063
-18.8779 -9.29361 -15.8025 -0.961154 0.275172 -0.0215292
-15.5378 -12.4628 -19.2135 -0.177928 -0.948313 0.262761
15.7653 -5.51289 1.71571 0.876436 0.280537 0.391355
11.19 -5.44369 -18.2071 0.645831 0.22488 -0.72961
8.80422 7.53442 -15.9036 0.184418 -0.954415 -0.234694
14.2198 -14.4828 -14.2523 0.783701 -0.273705 -0.557583
17.6168 8.09736 24.5538 0.549359 0.00106146 0.835586
-17.0202 20.5626 17.0057 -0.523459 0.652024 0.548503
25.8519 19.3647 -12.3652 0.84215 0.394751 -0.367362
-12.1069 -1.88599 -25.8892 -0.318176 -0.221261 -0.92185
11.5854 -21.9061 -8.49057 0.60634 -0.753263 -0.254846
25.1561 21.9533 -1.63526 0.840597 0.514429 -0.169588
22.9507 10.9649 -13.1774 0.215034 -0.904136 -0.369185
16.2886 -12.2623 1.65121 0.911926 -0.138268 0.386359
-4.78845 -9.30213 -26.1603 0.616245 -0.752009 -0.23393
22.7391 -1.26419 12.2109 0.573225 -0.771322 -0.276543
17.6005 -6.65034 -5.16304 0.981044 0.193762 -0.00290646
8.68433 23.4956 19.1604 -0.043884 0.978145 0.203241
-5.05564 21.9145 22.4981 -0.147147 0.885532 0.44066
17.2277 -12.4869 -1.30475 0.958776 -0.164842 0.231463
12.1762 24.2398 16.0639 -0.0736764 0.981454 0.176972
-12.3739 27.1919 -8.79986 0.0324354 0.967642 0.250233
21.4444 11.8743 21.3121 0.658617 0.113484 0.743872
-5.13382 9.02519 -22.617 -0.0941426 -0.697997 -0.709886
-11.621 9.78892 -21.5353 -0.319872 -0.560289 -0.764041
-8.73977 12.26 26.7534 -0.463756 0.0896626 0.881414
-12.337 19.3268 -23.1834 -0.442651 0.232918 -0.865915
-15.7698 12.6181 23.3782 -0.0597429 0.575359 0.815716
-23.0917 23.055 1.94294 -0.685567 0.715084 0.136579
-16.7659 -3.84794 -12.1112 -0.591424 0.788033 0.170943
9.75668 27.841 -5.92215 0.178496 0.980861 -0.0777844
-5.0102 18.9406 25.5492 -0.258283 0.570654 0.779515
5.21799 29.1163 -15.5786 0.0717105 0.994475 -0.0766678
8.44981 28.3486 -4.9517 0.240183 0.958386 -0.154302
-11.5457 -2.19687 4.64195 -0.662345 0.461738 0.589998
19.0136 22.0587 -18.9146 0.32462 0.814302 -0.481181
23.1296 4.3085 1.38064 0.332437 -0.842101 -0.424678
17.5979 -11.2878 -7.59246 0.978069 -0.122032 -0.168786
-14.6747 -15.277 -11.6987 -0.844232 -0.234771 -0.481824
22.2701 3.2467 3.01702 0.176014 -0.880941 -0.439275
18.2693 13.3935 -21.3765 0.437857 -0.591858 -0.676746
-8.87785 6.46324 -18.4599 -0.152052 -0.865102 -0.477994
1.7021 28.4911 -8.50634 0.0109898 0.965987 -0.258358
19.2471 11.1515 -15.7454 0.178377 -0.94935 -0.258682
16.1536 6.02672 -5.35814 0.0579473 -0.964907 -0.25612
7.9546 -21.481 -14.6881 0.482943 -0.733614 -0.478097
15.7245 8.78737 25.6816 0.503434 0.0450998 0.862856
-11.8373 1.83769 4.77632 -0.235238 -0.952712 0.192359
19.4009 7.99957 -8.80276 0.337486 -0.835266 -0.434089
-9.17716 1.16746 5.59483 -0.556211 -0.592583 0.582645
-4.46764 28.2219 -7.76274 -0.183497 0.952883 -0.241541
-7.57031 28.1694 1.48369 -0.236737 0.967425 0.089688
-15.1673 -12.2105 1.8891 -0.895813 -0.162167 0.413788
-15.3772 -15.7011 -1.80052 -0.907814 -0.370361 0.196739
23.8523 23.6407 -2.02977 0.752192 0.639961 -0.157026
-12.0383 22.6418 -21.9389 -0.423147 0.46144 -0.779756
-15.4774 -11.5716 -15.7051 -0.38634 -0.902121 0.192145
14.9547 -18.9423 -5.31015 0.82015 -0.569746 -0.0523824
5.17138 22.3854 22.7767 0.0190781 0.914579 0.403957
16.2971 16.1809 23.8303 0.472102 0.359656 0.80484
-1.77498 12.3655 29.1406 -0.140379 0.158896 0.977264
1.86239 -26.357 -5.25226 0.00613407 -0.99754 -0.0698242
10.4702 27.9904 -3.4185 0.34194 0.937345 -0.0667926
-1.73847 -22.7966 5.32921 -0.141553 -0.787071 0.600402
5.18522 -26.4935 -5.59332 -0.0924283 -0.75488 -0.649318
1.88563 27.7296 9.43704 -0.00364552 0.964004 0.265864
1.44074 -1.83051 19.2581 -0.208985 -0.900578 -0.381162
22.0255 25.1813 5.20869 0.554841 0.814535 0.169365
23.0566 0.783446 8.2201 0.329817 -0.839181 -0.432431
9.49796 7.10438 -13.1134 0.105662 -0.985309 -0.134169
27.4061 15.9039 -4.36319 0.826038 0.169081 0.537655
-25.0599 6.34394 1.81709 -0.788025 -0.615583 -0.00857694
1.57176 -12.2507 -22.3521 -0.0625607 -0.151642 -0.986454
1.6326 26.2843 -22.5886 0.0879771 0.704159 -0.704571
-5.30927 19.3293 -25.7037 -0.217197 0.167677 -0.961618
17.2121 -8.71187 -9.564 0.96617 0.0349515 -0.255526
-1.88104 -1.3161 23.0596 -0.349739 -0.914748 0.202284
-25.5411 15.6747 8.80058 -0.85615 0.458916 0.237494
-15.7982 -4.19823 -22.5272 -0.181694 -0.853591 -0.488231
25.2865 15.5727 15.3837 0.832713 0.257811 0.490022
-27.4727 15.7995 -1.79112 -0.983339 0.180651 0.0202502
8.86549 8.99451 -19.3494 0.310599 -0.813362 -0.491905
-8.30837 21.551 21.8635 -0.272286 0.784633 0.556966
1.93719 28.544 -12.3746 -0.0761955 0.957612 0.2778
20.2017 23.9559 12.9499 0.478564 0.793747 0.375423
-8.73669 -12.1755 9.05131 -0.52631 -0.134373 0.839608
-27.5396 12.2389 -1.84975 -0.988266 -0.149774 -0.0299552
26.4365 19.3103 8.74584 0.872023 0.452321 0.187032
28.1924 12.1638 5.17589 0.998327 -0.0215621 -0.0536426
-14.6231 21.459 18.0075 -0.424266 0.727505 0.539199
-5.37952 -23.8147 1.95848 -0.329772 -0.858059 0.393683
15.7812 26.3223 5.2666 -0.0949419 0.980434 0.172438
-15.6011 24.8138 5.00303 -0.187092 0.968142 0.166426
-15.8632 5.20156 -12.3687 -0.247649 -0.898084 -0.363476
12.1573 19.3244 -22.3082 0.297339 0.253246 -0.920574
-8.69107 -4.43952 -22.6277 -0.152738 -0.824515 -0.544836
-11.9116 -15.7558 -15.4783 -0.73727 -0.352363 -0.576431
-27.3875 12.2914 1.68311 -0.988126 -0.0850177 0.127981
5.21764 -1.03545 16.264 -0.197764 -0.817321 -0.54118
-21.3683 24.7252 0.988823 -0.519699 0.841095 0.149906
-12.4099 -13.4033 -19.1881 -0.367579 -0.927594 0.0667479
-26.2384 19.2446 -1.91154 -0.886475 0.462432 0.0178639
8.99453 15.7684 27.294 0.275337 0.318589 0.907023
-8.68406 27.3095 -8.76485 -0.125587 0.989113 0.0766989
-5.25845 -1.8729 -25.8883 0.294196 -0.2765 -0.914875
15.7381 25.1547 12.3191 -0.0532632 0.981336 0.184778
18.6975 18.9415 -21.7764 0.526833 0.305057 -0.793339
4.72217 6.32248 -15.1326 0.267954 -0.903693 -0.333975
-14.5728 -15.2969 1.24295 -0.856672 -0.351544 0.377532
-19.3059 26.0753 -5.29566 -0.354185 0.934906 0.0224518
5.59508 5.87743 -12.8937 0.552258 -0.474243 -0.685642
-8.9271 4.95202 -15.6697 -0.276914 -0.706479 -0.65131
27.8244 15.8319 -9.81138 0.935225 0.0448816 -0.351199
14.3205 10.391 -17.6923 0.400824 -0.821867 -0.404815
-1.8709 27.6562 9.1011 -0.0801147 0.967616 0.239376
17.7274 -11.8971 -5.16059 0.987277 -0.154706 -0.0367574
4.80267 21.873 -24.8514 0.248654 0.343648 -0.905581
-1.74344 -25.0837 -12.2495 -0.0493224 -0.942432 -0.330739
-18.1124 21.7927 -18.1351 -0.61409 0.450417 -0.648088
-1.7094 -8.8026 -23.0041 0.394195 -0.476614 -0.78578
-24.1531 15.8105 -13.4169 -0.838023 0.0517617 -0.543175
8.78076 -26.3138 -1.50426 0.736742 -0.545357 0.399745
1.83552 2.39471 28.4827 -0.135066 -0.387505 0.911919
28.0771 9.75088 7.92967 0.991946 -0.110252 0.0623545
15.8486 24.0893 16.4293 0.18543 0.913439 0.362278
5.0588 28.3256 -8.65611 0.0643101 0.990445 -0.121998
8.92186 28.4233 -9.03253 -0.10586 0.963364 0.246419
8.72659 28.5055 1.74328 0.207993 0.974682 0.0820557
-22.1686 14.6508 18.6386 -0.397943 0.780863 0.481554
1.80517 -25.3793 1.68586 -0.0928118 -0.885389 0.455492
-27.2577 15.7678 -5.21927 -0.97744 0.145518 -0.153084
24.069 20.4834 13.0781 0.750945 0.537334 0.383867
19.1224 26.9345 1.75845 0.226846 0.968223 0.105289
-15.785 26.9493 -12.4017 -0.370818 0.910131 -0.184812
-11.9545 21.9967 18.979 -0.292104 0.83164 0.472281
22.0408 6.60389 -4.22598 0.343893 -0.827827 -0.443216
-8.87449 23.5874 15.6308 -0.235119 0.885574 0.400597
26.3465 19.2984 -1.66142 0.927711 0.305249 -0.214886
-15.8929 -1.84929 -23.204 -0.686247 0.556661 -0.468182
-4.10236 -9.86858 -23.7478 0.580303 -0.695885 -0.423074
15.6068 -1.79945 -5.20807 0.863041 0.504999 0.0116751
5.9137 -4.58384 10.152 0.316331 0.326547 0.890675
15.717 4.20567 1.74775 -0.17114 -0.942641 -0.286598
26.9167 5.19671 8.68703 0.929328 -0.36894 -0.0152875
12.0273 -2.00552 -15.459 0.667544 0.46997 -0.577506
-1.79787 23.1888 19.1376 -0.0728506 0.910381 0.407308
27.2552 8.83964 12.1271 0.958407 -0.104577 0.265556
1.74064 -15.5208 11.12 0.0678891 -0.330161 0.94148
-15.9421 7.94169 24.3562 -0.106763 -0.261844 0.959187
-8.39914 15.7484 -25.0051 -0.288409 -0.0938227 -0.9529
9.08453 -23.0613 2.05147 0.519927 -0.674878 0.523655
-25.9539 5.48384 12.2731 -0.728703 -0.612372 0.306581
-1.719 28.9902 -15.5357 -0.0535207 0.996119 0.069869
-4.96261 21.9884 -25.0156 -0.192811 0.372887 -0.907623
-15.6825 25.8532 -15.6757 -0.461241 0.788467 -0.406912
2.05078 7.47108 -19.91 0.161166 -0.900968 -0.402843
10.9766 -14.7417 -17.8379 0.625311 -0.300745 -0.720097
-1.66822 -25.9547 -8.68636 -0.0743274 -0.985755 -0.150871
11.9527 12.7402 -21.8876 0.176611 -0.501345 -0.847031
-5.32756 4.79362 -16.3302 -0.0903725 -0.448565 -0.889169
15.7414 27.5943 -1.80154 -0.0756793 0.982648 0.169338
-19.2687 15.8526 -18.9834 -0.66029 -0.00507756 -0.750993
12.0443 28.4881 -12.0847 0.230961 0.96309 -0.138258
24.0393 1.22578 16.3049 0.876838 -0.336 0.343889
5.24116 28.805 -12.1991 -0.07386 0.969799 0.232452
12.2321 28.5463 -8.72631 0.0416852 0.993744 0.103611
25.4308 2.36563 8.85719 0.795136 -0.583316 -0.165835
5.28994 28.5048 5.27934 0.0715522 0.982616 0.171309
-5.44511 27.6628 -9.01318 -0.19085 0.963799 -0.186196
1.83924 19.0989 -26.1019 0.13686 0.119058 -0.98341
12.0336 -2.29461 5.09017 0.665784 0.425802 0.612719
-12.0731 25.3364 8.60574 -0.413977 0.865904 0.280771
-5.68788 -4.96002 10.0533 -0.340386 0.250563 0.906287
11.2142 -5.6197 7.63263 0.606666 0.280157 0.743955
14.9213 -15.5282 -12.2196 0.82725 -0.362796 -0.428995
19.3089 25.6829 8.812 0.237182 0.943763 0.23034
-5.66642 -4.44566 -23.3565 -0.54647 -0.296339 -0.783297
-1.56237 -15.012 -21.3339 -0.116961 -0.290077 -0.949829
11.4988 -8.6774 -18.4882 0.667981 0.0323002 -0.743477
5.13295 0.964396 -18.4917 0.326831 0.631627 -0.703014
-5.31894 -25.2745 -8.74675 -0.27087 -0.955709 -0.115103
12.2137 15.699 -22.728 0.0604346 -0.0657562 -0.996004
-5.02169 -18.8542 8.15165 -0.316471 -0.554138 0.769921
12.6022 -5.36117 23.2783 0.103021 -0.734512 0.670729
-5.00553 28.3478 -18.4671 -0.144034 0.93767 -0.316273
-5.25711 28.5666 1.68287 -0.148032 0.984521 0.0938379
-8.92809 1.97031 -15.6571 -0.548115 0.571764 -0.610455
-13.7082 -3.86893 3.12507 -0.769694 0.282958 0.572281
-8.76127 0.896206 15.925 -0.182836 -0.978498 -0.0954655
-11.6537 -22.0039 -5.26437 -0.666825 -0.743564 0.049559
8.91039 -23.5404 -8.88052 0.466053 -0.836156 -0.289201
-13.3724 -20.0955 -5.23801 -0.78883 -0.612694 0.0485056
1.98633 -5.93553 -23.325 0.289217 -0.707253 -0.645094
-18.8909 3.06012 8.60154 -0.294806 -0.950585 0.0973537
12.27 27.5442 -1.78746 0.235127 0.971916 0.00973268
22.2891 22.0601 -15.4814 0.552831 0.757396 -0.347461
-19.1388 22.2469 12.0415 -0.51127 0.767736 0.386245
21.5766 25.1707 -5.12802 0.660019 0.714087 -0.233353
-19.0056 6.1409 -12.0386 -0.382143 -0.838071 -0.389363
-14.9803 -1.70997 -8.90806 -0.846787 0.518845 -0.11727
-1.83279 24.231 17.1632 -0.10246 0.810268 0.577034
2.26618 -24.284 -13.5661 0.189603 -0.887978 -0.418982
21.9264 18.9619 -18.63 0.742505 0.214734 -0.634488
-5.30711 -25.4419 -5.14229 -0.303903 -0.952171 0.031851
-8.75782 -23.425 -1.69509 -0.497569 -0.837571 0.225611
-26.0178 12.2585 15.8636 -0.848988 0.200541 0.48888
-22.9274 4.56752 1.66244 -0.540849 -0.840604 -0.0294413
-25.8266 8.85405 15.7899 -0.845861 -0.237956 0.477384
9.09661 -12.3062 -19.9271 0.523072 -0.155566 -0.837971
17.7013 -8.91262 -2.5414 0.987523 0.0510007 0.148987
-1.82998 -19.238 -19.5415 -0.150016 -0.495206 -0.855725
12.5451 11.0435 -20.0216 0.283975 -0.776135 -0.563003
11.9563 25.573 -18.5997 0.471012 0.640216 -0.606853
13.1031 -12.295 -16.4596 0.752552 -0.168194 -0.636692
-19.7222 24.1534 5.76812 -0.302673 0.920786 0.246052
17.8451 -8.72537 -5.2258 0.996195 0.0855405 -0.0167035
1.71746 25.3409 15.5742 0.0236725 0.871832 0.489232
16.3264 -15.9386 -1.74709 0.911314 -0.368838 0.182932
15.6159 19.346 -22.3575 -0.08834 0.475211 -0.875426
-8.724 1.84776 22.6917 -0.462681 -0.734928 0.495789
14.261 -17.9394 -11.0062 0.774603 -0.525006 -0.352645
-1.80014 19.312 26.0906 -0.150217 0.616234 0.773105
-23.4271 23.2241 -1.78775 -0.719214 0.69443 0.0223101
25.7106 12.3569 15.8089 0.87397 0.0933919 0.476922
5.64742 16.84 27.6937 0.165062 0.388792 0.906419
12.5834 27.038 -16.027 0.417216 0.795765 -0.438963
-8.85995 19.5106 23.5155 -0.364528 0.572057 0.734758
8.30568 12.0918 28.4445 0.277189 0.175012 0.944742
19.1551 1.771 22.652 0.597767 -0.19793 0.776852
9.33506 5.71856 -8.97488 0.685887 -0.553144 -0.472854
19.2697 5.03612 -1.78828 0.0436521 -0.936541 -0.347829
5.16613 -25.2091 -8.73789 0.284253 -0.923984 -0.255838
5.74393 -24.1034 3.01188 0.240809 -0.738889 0.629328
1.713 29.2945 -1.83028 0.00413016 0.99999 -0.00146127
-17.9505 3.17802 21.3851 -0.459145 -0.762316 0.456136
-5.02942 25.0551 14.9577 -0.185618 0.868797 0.459061
-19.21 23.4783 8.78315 -0.36471 0.885417 0.288137
-13.0338 8.48417 24.2791 -0.0033942 -0.154658 0.987962
8.86283 -5.14371 22.8034 -0.305871 -0.93347 0.187288
-12.5006 1.7928 12.281 -0.153302 -0.98722 -0.0435251
5.33014 -12.2545 11.1779 0.269287 -0.0992997 0.957927
22.2081 25.4514 1.79609 0.588612 0.808006 0.0257213
25.4312 5.27567 15.7619 0.90216 -0.18114 0.39153
-8.78839 15.8455 25.7971 -0.41296 0.370014 0.832198
-1.87544 27.8071 -10.923 -0.0350594 0.943556 0.329351
25.3341 22.2174 1.89863 0.816307 0.577615 -0.0016995
-12.4494 27.3335 -15.7524 -0.320299 0.901067 -0.292382
7.79702 -18.327 -18.1923 0.461242 -0.521663 -0.717721
-7.65639 -18.1929 -17.9653 -0.453368 -0.456879 -0.765322
15.1779 1.85913 25.32 0.476519 -0.211668 0.853303
-22.2192 19.0654 11.9925 -0.752668 0.455713 0.475201
11.4615 22.1672 -21.5923 0.471006 0.419056 -0.776238
-19.442 22.7552 -15.7934 -0.640282 0.563328 -0.522208
27.0806 15.7523 -1.84087 0.982336 0.108443 -0.152499
-8.74109 28.2608 -13.0656 -0.0239752 0.980627 0.194413
26.3772 5.19492 5.20264 0.824988 -0.511366 -0.240622
-8.95519 8.60166 26.3519 -0.493331 -0.184494 0.850051
-1.68641 5.16498 28.7572 -0.252931 -0.26567 0.930293
-5.16758 -5.75099 -26.627 -0.37512 0.828481 -0.415818
-18.6961 -11.5535 -19.5458 -0.884055 -0.467299 -0.00886525
-1.73769 -26.2185 -5.13807 -0.118689 -0.992924 0.00375131
11.6286 4.92604 -1.8689 0.601811 -0.788109 -0.129258
26.0014 19.2544 -5.32927 0.75138 0.633674 0.184078
15.746 22.4611 19.1642 0.37145 0.725932 0.578833
-1.58341 -25.0769 1.40889 -0.158195 -0.915601 0.369661
-1.80036 -12.3807 11.6238 -0.145646 -0.113117 0.982849
-14.9477 -5.33278 1.63055 -0.881645 0.241601 0.405377
23.0387 19.3399 15.8446 0.677862 0.512242 0.527362
14.6838 -18.5304 -8.67055 0.80841 -0.545047 -0.222254
12.2472 12.2397 27.0059 0.388642 0.174288 0.904755
6.39781 -20.5907 -17.0589 0.414322 -0.658218 -0.628559
-17.9442 -3.97575 -21.6452 -0.594277 -0.579672 -0.557509
25.6049 5.79029 1.90306 0.7261 -0.591797 -0.350078
-5.25569 -15.8678 -20.2394 -0.257565 -0.3787 -0.888958
25.5074 18.9885 12.0945 0.799959 0.472619 0.369726
15.609 6.68205 -8.03771 0.127993 -0.955773 -0.264795
20.5973 20.7971 17.0613 0.573065 0.601916 0.556142
19.3071 3.9565 1.18888 -0.037488 -0.933396 -0.356886
-1.7825 22.4618 -25.2417 -0.0692047 0.40675 -0.910915
-5.77185 -24.0302 -13.0055 -0.300373 -0.874044 -0.381867
-22.7664 4.27256 5.16059 -0.398326 -0.912283 -0.0952679
1.52278 -1.04018 -23.4777 0.0991946 0.822618 -0.559875
19.226 27.0844 -1.71908 0.367927 0.929853 0.00169601
12.0371 25.1603 12.1207 0.155697 0.936904 0.312999
19.2687 22.8539 15.7975 0.494734 0.722555 0.482859
-13.2022 -13.0502 -15.7695 -0.737836 -0.620286 -0.266164
