ply
format ascii 1.0
comment Generated by the CGAL library
element vertex 891
property double x
property double y
property double z
property double nx
property double ny
property double nz
end_header
19.9287 6.18063 -2.13866 0.619809 0.731064 -0.285276
-5.35568 5.32063 15.98 -0.342454 0.607007 0.717124
24.2555 11.307 0.879732 0.870945 -0.383412 -0.307328
9.492 9.76426 -6.49316 0.416561 0.249934 -0.874077
-7.92138 25.0198 0.8155 0.905424 -0.202686 0.372995
-4.97798 -5.50598 21.619 -0.356901 0.181816 0.916277
-6.18547 8.35242 13.2474 -0.657173 0.07418 0.750081
-10.7784 19.0739 11.6565 -0.965145 0.107642 0.238554
-13.7101 -16.2912 13.5375 -0.767586 -0.249305 0.590473
13.601 -16.8903 20.766 0.46532 -0.288949 0.836652
21.659 4.00634 -4.58139 0.67142 0.678433 -0.298201
14.2497 -2.98067 21.0928 0.400142 0.261664 0.878304
21.1788 12.6256 10.5226 0.188967 -0.0537196 0.980513
5.46874 12.4356 16.4285 -0.172484 0.56248 -0.808619
14.6829 -25.172 -7.68136 0.563745 -0.647063 -0.513323
1.90175 4.57331 18.6511 -0.0710398 0.659029 0.748755
-13.0596 -8.62657 16.4384 -0.745244 -0.0475661 0.665093
5.34438 6.39032 16.9119 0.0582776 0.531774 0.844879
13.1352 31.5464 -9.1305 -0.0275597 0.999468 -0.0174585
1.68123 6.35751 17.0366 -0.000614637 0.439359 0.898311
8.94583 30.8869 -2.98603 -0.068941 0.935935 0.34536
-10.9507 -18.1025 -10.8554 -0.624519 -0.385855 -0.679037
-10.9817 23.9121 -1.38183 -0.695487 -0.667056 -0.267086
21.6897 -12.0401 14.9607 0.825245 -0.166856 0.539564
17.8302 23.503 14.7436 0.826079 -0.351728 0.440319
-8.58585 8.4447 -8.90664 -0.302935 0.878055 -0.370472
5.05307 3.72478 -18.0202 0.0598009 0.935237 -0.348936
-14.8368 4.72845 8.20697 -0.651426 0.523675 0.549007
-6.25034 -16.3178 20.6302 -0.470286 -0.250212 0.846301
-7.85535 25.4287 21.5434 -0.522703 0.0912918 0.847613
1.59123 7.8502 -12.0175 0.0778909 0.831088 -0.550659
19.2078 -26.4037 12.554 0.044113 -0.540731 0.840038
8.84869 2.13397 20.2515 0.115806 0.510973 0.85176
-5.24871 27.1487 19.0227 -0.0375756 0.989938 0.136419
1.84918 -25.1696 18.186 -0.0781504 -0.689023 0.720514
19.9341 20.8326 0.991447 0.414671 0.814683 -0.405389
-11.1027 23.5081 15.4233 -0.807578 -0.542613 0.23106
8.54139 12.1756 15.2069 -0.360721 0.528658 -0.768376
-17.3161 -9.1313 10.1712 -0.905536 -0.0837135 0.415929
8.29519 10.0577 17.8909 0.229224 -0.633683 0.738852
8.44667 -28.3608 -7.6619 0.219608 -0.865948 -0.44934
21.8627 1.12873 -8.18785 0.71996 0.457704 -0.521694
0.425919 26.841 -7.72421 0.647319 -0.519855 -0.557431
12.9104 28.7569 13.2667 -0.184686 0.982382 -0.0285711
12.523 11.8466 -5.57958 0.558843 -0.600832 -0.571574
-17.8321 -15.4848 4.86572 -0.962646 -0.183273 0.19931
-25.2741 4.39942 -1.41529 -0.851328 0.452429 -0.26561
-13.2101 2.26787 13.072 -0.621307 0.507625 0.596904
-8.6306 -1.80727 18.8804 -0.458514 0.316358 0.830471
21.5057 13.5092 -3.6797 0.402675 -0.244266 -0.882149
-2.85164 -27.8147 13.672 -0.282615 -0.807828 0.517245
-17.8286 -22.079 3.78269 -0.563072 -0.155911 0.811567
-18.8604 -1.79567 5.23217 -0.961727 0.118364 0.247125
-16.6063 5.78134 -2.07964 -0.5903 0.641985 -0.489287
15.5633 4.71002 15.5125 0.408907 0.743878 0.528622
-15.0639 -15.5125 11.9227 -0.814835 -0.248465 0.523745
-12.984 -5.32753 16.5067 -0.713166 0.0525793 0.699021
-4.21696 3.89221 17.7628 -0.321786 0.561065 0.762666
-8.3905 28.1135 11.2381 -0.0481915 0.987206 0.151993
-1.70594 6.74697 -13.7827 0.00329515 0.769403 -0.638755
-1.14928 25.1336 -5.94365 0.29738 -0.789041 -0.537569
24.6606 -11.3928 4.92875 0.976632 -0.199258 0.0805421
13.5317 18.8953 13.165 -0.777159 0.0862572 -0.623364
8.68806 15.1664 16.6978 -0.408582 0.230578 -0.883117
-8.02143 0.862158 17.9969 -0.42441 0.440011 0.79137
-14.3271 -11.7802 14.3579 -0.791182 -0.15057 0.592755
12.9771 6.4349 -9.82692 0.328464 0.792615 -0.513685
-11.1197 28.8539 -7.64668 -0.614865 -0.00547522 -0.788613
21.1753 22.3689 5.79062 0.98682 0.150323 -0.0599081
8.42133 25.2405 -6.09592 -0.15431 -0.507667 -0.847622
-18.2224 -24.8605 -3.62768 -0.0408684 -0.315746 -0.947963
-2.27432 -20.4275 20.6801 -0.263068 -0.454937 0.85078
-11.6182 15.6577 8.47116 -0.990797 0.105249 0.0851097
-6.07318 29.0561 5.2288 0.0796027 0.986061 0.146107
-9.76972 8.80118 9.73427 -0.740713 0.0523886 0.669776
16.0203 5.53149 -8.93288 0.410881 0.759723 -0.503983
-23.7942 5.59957 2.19177 -0.793228 0.436497 0.424569
6.60444 27.4129 -7.4625 -0.676993 -0.339551 -0.652982
1.68693 2.27398 20.2937 -0.0957413 0.524508 0.846005
12.5439 25.0594 -2.7855 -0.30244 0.640953 0.705486
-15.3562 -19.3505 8.77717 -0.851902 -0.362227 0.378226
20.7352 23.3704 4.34878 0.911383 0.152336 -0.382328
-19.3307 -5.16395 1.60572 -0.99655 -0.0771961 0.0304734
-5.34591 10.221 -6.10813 -0.417624 0.694764 -0.585571
-3.76692 27.8566 10.1998 0.387846 0.914552 0.11476
9.85523 -13.2647 -17.2336 0.35968 -0.249096 -0.899212
8.4704 21.7706 -7.68588 0.371932 0.236377 -0.897659
12.5453 22.5866 -1.71058 -0.611711 0.11533 0.78263
-16.4923 5.31049 6.4206 -0.366803 -0.0835342 0.926541
-5.53449 27.906 13.0577 -0.0246665 0.993745 0.108918
-1.77324 12.2052 19.8188 -0.227415 -0.493147 0.839695
-13.4458 -23.9266 -3.26889 -0.46981 -0.310202 -0.826471
1.83523 9.60236 18.3721 -0.0331764 -0.69475 0.718485
1.64696 11.9143 20.0697 -0.0514493 -0.554772 0.83041
11.3534 -18.2101 21.3453 0.376972 -0.344497 0.859776
-8.77402 -15.7104 19.0815 -0.607216 -0.213642 0.765275
17.0427 -23.8818 -6.24083 0.694815 -0.574304 -0.432905
-5.84137 15.7607 -5.92396 -0.700725 -0.0597774 -0.710923
14.6722 26.1453 21.417 0.575608 -0.0425761 0.816617
-9.15617 10.0491 -2.04021 -0.677128 0.649785 -0.345366
-1.95521 1.59662 19.9793 -0.231069 0.474481 0.849397
1.89679 -28.3059 14.4687 -0.081247 -0.814642 0.574245
-4.0877 -2.73225 21.2518 -0.342122 0.289536 0.893936
16.6037 30.4669 1.11342 -0.338371 0.891248 0.301964
5.26328 -31.128 5.3497 0.074919 -0.9971 0.0133686
18.7982 4.46647 12.1536 0.587764 0.734472 0.33924
11.8784 23.7115 21.7528 0.35878 -0.607857 0.708369
-5.3203 25.2408 -2.45932 0.519558 0.33441 0.786276
21.9625 -5.23477 15.3167 0.819093 0.0875478 0.56694
8.91508 26.5782 -8.41891 -0.37112 -0.589347 -0.717594
20.2894 16.1455 10.063 0.533879 0.188346 0.824317
-17.8499 -19.4162 3.91452 -0.781559 0.0165318 0.623612
2.28212 3.63985 -17.9209 -0.146972 0.872223 -0.466505
24.6868 -20.5091 8.42018 0.931453 0.356519 0.0727255
18.656 28.8297 11.9544 0.559541 0.789441 0.252381
21.7466 1.15314 11.9319 0.802384 0.464882 0.374252
-7.66759 19.6364 18.2631 -0.732412 -0.205216 0.649199
21.2814 -15.0459 14.4761 0.834202 -0.233904 0.499396
21.2562 -2.53224 -10.7296 0.738477 0.121351 -0.663269
9.29344 23.502 -6.39158 0.208167 0.0659816 -0.975865
11.8847 4.11867 18.1108 0.245992 0.668984 0.70139
-8.14951 15.7325 5.01632 0.99108 -0.0829146 0.104336
-7.73938 -28.3029 -0.980067 -0.385704 -0.891802 -0.236476
16.7691 6.66043 -6.275 0.409263 0.843653 -0.347495
-10.2054 -20.4173 -10.1644 -0.628509 -0.429732 -0.64831
8.59404 8.55772 -8.53363 0.274283 0.740374 -0.613689
24.7054 -22.9419 6.60906 0.790787 -0.00646861 -0.612057
-1.59898 11.7598 15.4915 0.292973 0.604132 -0.741074
17.6439 -4.3919 -14.1484 0.698937 -0.0621064 -0.712482
13.3471 8.36242 13.3517 0.686146 -0.128008 0.716113
-5.25464 12.2124 -5.355 -0.647567 -0.12155 -0.752252
-5.18997 19.3231 -1.42094 0.747999 -0.119354 0.65288
24.71 -2.6569 7.67764 0.955287 0.170021 0.241909
-11.9242 4.87154 -12.2069 -0.522303 0.662132 -0.537383
-10.7363 19.1138 2.60318 -0.97041 0.0521296 -0.235769
-17.9966 -1.86249 8.38002 -0.920984 0.16602 0.352457
-19.8889 -2.19323 2.02458 -0.757168 -0.46339 0.460398
12.1742 4.95407 -12.1453 0.312514 0.718166 -0.62175
-14.9115 1.32287 11.8974 -0.700457 0.448431 0.55522
20.5877 -5.12158 17.028 0.722878 0.070396 0.68738
-11.254 -5.4122 18.1045 -0.615726 0.109966 0.780249
-0.268225 0.185358 21.1384 -0.20388 0.43737 0.875866
-16.7898 8.67845 6.72406 -0.401195 0.100962 0.910412
-15.9707 -1.74646 12.3054 -0.816378 0.213327 0.536674
-9.15673 19.2613 15.9491 -0.88241 0.0143597 0.470262
-5.28081 -12.2843 21.8487 -0.411506 -0.0857609 0.907363
-4.84523 12.4529 18.7352 -0.445097 -0.431571 0.784624
13.3827 3.06761 -13.5442 0.387491 0.672927 -0.630096
-7.85313 -21.8425 -11.1462 -0.518858 -0.517257 -0.680611
-5.3285 30.6322 -5.23692 -0.0425285 0.995159 0.0885991
-11.1795 19.2192 8.6693 -0.993747 0.090086 0.0659621
20.5366 -8.69811 17.0026 0.718997 -0.0692435 0.691555
24.1601 -5.442 -6.3524 0.885401 -0.141123 -0.442887
16.1043 -26.9785 -1.86478 0.610969 -0.754817 -0.238681
12.1838 7.57108 -8.33227 0.288809 0.857477 -0.425821
24.5971 -23.7063 10.6372 0.83351 -0.0229715 0.552027
-18.7599 -8.81842 5.20203 -0.982379 -0.102903 0.156022
1.82385 15.6085 21.4155 -0.0159147 -0.113526 0.993408
14.4848 -7.53169 -18.1465 0.766496 -0.526659 -0.36758
-16.704 -15.6602 8.71159 -0.902265 -0.253412 0.348855
1.67845 -12.2584 23.8968 -0.137067 -0.0912924 0.986346
5.35648 -23.1339 19.966 0.0526867 -0.598373 0.799483
24.3505 -10.0373 -3.03238 0.928168 -0.24827 -0.277247
-14.7086 -15.4782 -8.10394 -0.77418 -0.329815 -0.540248
-5.23265 23.166 -1.45216 0.548541 0.2976 0.781369
1.92251 6.65883 -13.5823 0.112282 0.757792 -0.642763
-9.57996 -19.7944 16.7209 -0.644143 -0.386115 0.660299
12.3534 27.7929 19.887 -0.0345693 0.984566 0.171565
-4.50885 -28.4689 11.4008 -0.344982 -0.845439 0.407701
12.2895 30.9805 -8.91909 0.125341 0.961427 -0.24484
-12.7623 5.95883 9.19074 -0.578225 0.592005 0.561414
-17.8126 -11.6506 -4.43276 -0.926455 -0.198972 -0.319517
-12.5253 10.0203 0.6759 -0.0557749 0.6159 -0.785848
12.3879 28.4487 15.8322 -0.0536231 0.990059 0.130031
-16.7484 -19.3494 5.6186 -0.863635 -0.240821 0.442876
21.3126 -18.2038 -4.28169 0.861787 -0.390137 -0.324218
-17.1568 -12.4056 9.44013 -0.909651 -0.163011 0.38205
18.4859 -1.98628 18.2658 0.588357 0.233023 0.774297
-2.43748 3.28635 -17.2995 -0.102477 0.669718 -0.735511
20.5148 -23.7999 4.3741 0.78181 -0.463254 -0.417336
-9.76736 -1.61311 -17.1798 -0.448824 0.0757053 -0.890408
-7.68634 -15.1706 -14.5587 -0.505045 -0.323846 -0.800034
15.5503 7.66009 -5.17158 0.369684 0.872056 -0.320705
22.6297 -26.2402 6.20756 0.388959 -0.156349 -0.907891
-5.77859 -23.7449 16.7879 -0.418153 -0.618661 0.665137
-11.0645 25.7438 18.2886 -0.856805 -0.0791781 0.509525
-11.8439 28.733 5.14909 -0.148359 0.978636 0.142339
12.1818 26.311 22.3295 0.305524 0.369378 0.877619
16.3814 -5.20464 20.2935 0.537587 0.101758 0.837046
11.5114 13.1655 -7.81441 0.375946 -0.509141 -0.774235
-9.28919 25.1722 -5.97349 -0.395756 -0.754378 -0.523728
-17.1704 2.82444 -6.06927 -0.857092 0.425864 -0.289884
-19.256 9.33814 1.51729 -0.40295 0.855156 -0.326097
-22.0821 7.77491 1.70356 -0.599051 0.800702 0.0037505
9.6605 -10.2693 -20.5717 0.333685 -0.824995 -0.456112
-17.6827 0.473579 -7.31032 -0.906629 0.272456 -0.322166
8.93556 -23.4214 -13.2164 0.269976 -0.591868 -0.759477
8.86034 26.5665 22.6765 0.00177598 0.680653 0.732604
10.1304 -27.979 13.8095 0.183329 -0.822667 0.538154
21.9891 9.49786 -0.672868 0.588673 -0.530151 -0.610249
-1.35951 -19.065 21.5777 -0.242782 -0.388405 0.888931
8.965 6.24503 16.5552 0.174555 0.691592 0.700878
24.2664 -13.1784 1.56345 0.968252 -0.242558 -0.0604484
24.7942 -5.31529 8.1983 0.974829 0.00750903 0.222828
-6.64182 13.5528 0.930333 0.825883 0.198691 0.527674
-10.0933 -13.3946 -13.6992 -0.54822 -0.33522 -0.766213
-5.28043 7.77806 -11.8395 -0.146105 0.84776 -0.50986
19.5122 11.5016 -2.90764 0.0892687 -0.589171 -0.803062
16.9966 -20.1702 -10.0009 0.68937 -0.411829 -0.595958
24.7808 0.656309 1.80525 0.918248 0.391076 0.0622848
-11.6139 1.31672 15.2614 -0.55863 0.473115 0.681245
-1.19785 16.1135 21.198 -0.191319 -0.142598 0.971114
-19.3232 5.30214 5.6048 -0.275433 -0.16574 0.946925
-1.85212 26.4287 -8.64751 0.178058 -0.655228 -0.734147
8.82102 12.2668 19.3771 0.276356 -0.522977 0.806302
-5.43442 11.648 12.3434 0.708057 0.484141 -0.514064
8.92198 -16.0004 -16.823 0.286039 -0.267332 -0.920171
-1.68284 9.81589 -8.42339 -0.163208 0.721827 -0.672554
-13.1932 -16.1619 -9.62497 -0.703708 -0.350148 -0.618216
-1.83603 -30.6143 5.34025 -0.201192 -0.978488 0.0456498
1.57063 2.3621 -19.7078 -0.199177 0.764301 -0.613329
9.83451 -20.6059 20.8036 0.274506 -0.456213 0.846473
13.4958 -24.1101 -10.0518 0.508238 -0.618394 -0.599402
5.10345 22.4323 -8.18186 0.0813822 0.40292 -0.91161
-15.1133 8.75489 7.31671 -0.274393 -0.0123384 0.961539
1.65793 -15.6928 23.3423 -0.138918 -0.223929 0.964654
9.18985 19.3054 16.9146 -0.453481 0.0843527 -0.887265
-4.23535 -24.8602 -10.876 -0.369579 -0.657437 -0.656649
-13.0373 -19.6518 12.6428 -0.766449 -0.373962 0.522214
5.43956 -27.5675 -9.87466 0.0880524 -0.82058 -0.564708
-2.92873 -13.3472 -17.3414 -0.282733 -0.276371 -0.918521
24.6848 -7.6967 -3.95744 0.918903 -0.23293 -0.318373
9.267 21.7698 19.7084 0.187922 -0.775362 0.602908
4.89676 27.897 16.5092 -0.050131 0.998741 0.00166442
14.8015 -1.97909 -18.5011 0.758905 0.348576 -0.550052
-20.3616 -23.3684 -2.86079 -0.739842 -0.331125 -0.585653
23.6469 1.93075 5.37453 0.859522 0.472709 0.194338
-5.34699 25.7946 22.3654 -0.308408 0.438356 0.844232
-1.78509 -30.5884 1.68299 -0.207708 -0.975939 -0.066337
-7.45709 10.1941 14.7516 -0.582104 -0.690575 0.429255
-8.31476 23.7672 -4.48116 -0.375859 -0.783065 -0.495519
8.35683 0.510266 21.1971 0.121289 0.442316 0.88862
24.7971 14.9814 4.64048 0.964169 0.198314 0.17621
1.80682 8.12472 16.5585 0.0151053 -0.333442 0.942649
20.3416 -12.5839 -9.54875 0.774018 -0.224471 -0.592038
-17.8296 -11.8835 7.85686 -0.94564 -0.146783 0.290206
20.7018 -19.2123 13.6596 0.711342 -0.106165 0.694781
8.71495 30.0587 -9.14184 -0.522198 0.345803 -0.77957
21.6338 -28.4149 6.50513 0.356952 -0.763372 -0.538376
12.2682 31.2083 -5.2974 -0.0197262 0.996659 0.0792621
19.6849 8.14112 9.35797 0.477205 -0.569787 0.669042
-18.6721 -25.8672 1.16938 -0.544742 -0.677299 0.494492
-15.6504 -12.2764 12.2722 -0.833944 -0.166065 0.526269
18.8938 9.60349 11.0115 0.321591 -0.427664 0.844797
-9.39378 -5.53956 -16.9858 -0.423984 -0.223497 -0.87766
15.3654 23.5621 -4.53492 0.411617 -0.718233 -0.560993
24.7461 0.570494 -1.63193 0.915347 0.387875 -0.108131
8.68834 15.8063 -9.26629 0.0803963 -0.058778 -0.995028
-18.3383 -12.324 5.19769 -0.977737 -0.147297 0.149446
-7.8825 -25.1098 -7.83929 -0.513537 -0.693278 -0.505614
25.3889 -5.15258 5.27005 0.986717 -0.0181018 0.161437
-22.2518 2.30732 3.99785 -0.436761 -0.304134 0.846607
12.4557 -19.644 20.1615 0.407826 -0.399821 0.820866
9.58638 -0.121677 -20.9156 0.176721 0.428731 -0.885979
25.0702 -1.76383 5.18847 0.959993 0.208827 0.186562
22.6837 -5.43204 -8.75485 0.812939 -0.128399 -0.568017
1.74871 -29.5449 12.2521 -0.0941207 -0.89521 0.435591
5.17081 -28.6178 -8.15404 0.0674561 -0.884905 -0.46086
18.023 -25.2223 -1.51148 0.754135 -0.617769 -0.222806
-1.78608 7.80336 -12.313 -0.00988698 0.834019 -0.551646
-11.3272 -8.71687 18.1781 -0.660359 -0.0359455 0.750089
-13.2441 2.40681 -13.3744 -0.645842 0.461318 -0.608337
-1.23114 -28.3214 -7.62576 -0.222596 -0.875342 -0.429217
-14.3015 -11.3227 -10.8863 -0.722267 -0.300744 -0.622803
14.2148 3.5675 17.6851 0.349286 0.60506 0.715473
5.14226 -9.04245 -22.3028 -0.250981 -0.653841 -0.713793
8.43095 -25.0154 17.9459 0.167831 -0.68516 0.708794
-17.095 2.73964 6.34441 -0.791316 0.375246 0.48271
15.0139 -12.1697 -14.6854 0.555318 -0.159328 -0.816233
13.6885 6.60738 13.6819 0.488295 0.630949 0.602885
-13.0343 6.08076 -9.17221 -0.5631 0.721774 -0.402442
19.2283 12.3177 11.1044 0.384463 0.129728 0.91398
-9.89251 -27.6212 5.60535 -0.494006 -0.84928 0.186228
5.33994 19.1082 21.2778 0.179093 0.0316339 0.983323
-25.0457 4.53123 0.982214 -0.876658 0.311731 0.366463
18.65 4.33626 -8.3009 0.518992 0.696703 -0.495229
1.73976 -8.868 23.9815 -0.14983 0.0499286 0.98745
20.1723 26.1679 8.71373 0.963755 0.206205 0.16928
-23.5155 1.28399 2.55302 -0.629919 -0.37703 0.679006
14.9572 -5.37427 -18.8486 0.832625 -0.170908 -0.526807
12.7095 -1.36923 -20.1089 0.516935 0.401873 -0.755828
15.1824 23.2101 18.7036 0.633094 -0.551391 0.543286
-7.52289 15.8944 -4.15672 -0.769117 -0.0456359 -0.637477
-8.89981 22.4172 -2.15182 -0.673143 -0.462781 -0.576812
5.30911 -25.1929 18.2373 0.0500977 -0.688957 0.723069
20.3075 26.3473 1.68524 0.95112 -0.300978 -0.0691546
5.13221 7.66729 -11.5377 0.154905 0.817405 -0.554846
12.392 15.8028 18.6709 0.57059 -0.0382803 0.820342
-11.483 22.8918 5.25235 -0.920356 -0.387641 -0.0517697
18.1761 27.3205 -7.68085 0.638589 -0.487407 -0.595515
5.22186 26.2199 -6.03798 -0.38126 0.0841042 -0.920634
1.61612 -23.9399 -13.6068 -0.100504 -0.592564 -0.799229
-1.61003 -28.9915 12.1745 -0.222862 -0.868656 0.442459
20.7235 -9.52776 -10.1265 0.754138 -0.200445 -0.625378
-8.79348 9.54016 -5.3022 -0.367067 0.892558 -0.26192
1.87603 22.308 -8.02403 -0.218215 0.33764 -0.915632
16.3094 19.39 -2.55105 0.471657 0.373671 -0.798692
-0.854241 21.7371 -7.43262 -0.359902 0.25743 -0.896772
5.28151 4.69573 -15.5487 0.128612 0.874289 -0.468057
-19.0392 -8.79117 1.73219 -0.994278 -0.106787 0.00284058
5.41324 22.7715 21.7799 -0.120451 -0.442282 0.888751
5.26978 -21.315 21.2203 0.0586246 -0.523875 0.849775
16.6584 18.6255 13.2974 0.641624 -0.308248 0.702355
21.0431 29.1695 -2.18006 0.999351 -0.0309497 0.0184408
7.80828 -28.1418 14.3432 0.154064 -0.821518 0.548975
-1.95752 8.50405 16.3634 -0.316913 -0.446952 0.836541
-8.69786 28.9611 5.28542 -0.068991 0.984906 0.158746
-18.1028 -5.14187 8.75601 -0.940845 0.000628481 0.338836
-8.83881 30.408 -5.24066 -0.0888407 0.989975 0.1098
8.73053 31.1568 -5.31672 -0.0166106 0.997963 0.0615879
-1.99326 -8.85369 23.1121 -0.289479 0.061334 0.955217
-8.21297 7.42347 -11.2783 -0.268057 0.833329 -0.483434
1.57724 -23.0519 19.9115 -0.106818 -0.583737 0.804886
-11.6378 -22.6777 12.0119 -0.694169 -0.526705 0.490624
8.35385 7.2728 -10.9875 0.249136 0.786484 -0.565132
-16.495 -8.873 -8.94845 -0.837804 -0.254201 -0.483184
5.45227 -23.9979 -13.6047 0.0855003 -0.607566 -0.789654
9.02543 28.1642 16.2772 -0.0856609 0.995984 0.026025
1.62336 5.08025 -15.5549 0.0330648 0.798928 -0.600518
21.8921 5.24723 5.23719 0.962431 0.142109 0.23137
21.353 19.0435 7.81272 0.896525 0.205284 0.392558
12.9875 -27.4281 -5.95482 0.450593 -0.795345 -0.405453
-17.1042 -1.52991 -9.64297 -0.891145 0.1098 -0.440233
19.3978 13.0919 -4.04186 0.033128 -0.306866 -0.951176
-1.56886 26.1412 22.7171 -0.051479 0.633486 0.77204
-10.272 19.5943 13.0956 -0.955977 0.0644303 0.286282
-1.74566 4.98307 -15.7098 -0.013455 0.715428 -0.698557
-18.8959 -19.3895 -4.51691 -0.241421 0.040297 -0.969583
5.50689 2.33873 -19.9857 0.12152 0.705983 -0.697725
8.78751 -22.9176 19.57 0.209131 -0.582134 0.785738
-9.03469 15.7793 -1.99473 -0.849681 -0.0347311 -0.526152
24.429 11.6862 6.58841 0.963457 -0.0963536 0.249934
-4.10613 15.8368 -7.59477 -0.669348 -0.00758715 -0.74291
-8.56693 -12.1416 -15.1814 -0.491798 -0.301044 -0.817011
1.81843 30.31 -2.85493 -0.0985337 0.7783 0.620112
8.7267 19.2223 20.3313 0.307773 -0.0502639 0.950131
-11.813 26.2692 15.6311 -0.888859 0.32388 0.324085
-8.86516 -5.28499 19.6923 -0.507763 0.153247 0.847757
-9.04543 -27.032 8.92925 -0.532782 -0.777176 0.334875
21.602 -11.9805 -7.95984 0.827614 -0.232248 -0.510995
15.7943 30.9557 -1.74363 -0.0685495 0.990172 0.121903
-2.23647 15.6809 -4.54014 0.593832 0.114916 0.79634
15.1723 -28.1831 10.7827 0.149425 -0.886784 0.437363
-9.21161 15.832 15.8191 -0.848974 -0.0531765 0.525752
-12.2386 29.3792 -1.75587 -0.437217 0.893406 0.103283
-1.57379 -5.21086 22.7158 -0.270122 0.207372 0.940229
23.8902 -12.2726 8.75847 0.961273 -0.185498 0.203824
-2.60341 11.9762 -6.10278 -0.469396 -0.0594613 -0.880983
13.4301 -5.3296 -20.572 0.636271 -0.0692061 -0.768355
-17.6894 0.436094 7.72356 -0.908535 0.317615 0.271451
1.80493 15.8493 -10.0833 0.027998 -0.0792323 -0.996463
12.2987 -12.3151 -16.3546 0.490174 -0.294789 -0.820261
-13.0118 26.1174 5.21505 -0.943953 -0.330073 -0.00182812
-1.74375 22.7515 22.3722 0.00141103 -0.438479 0.89874
-2.1234 27.8435 12.9065 0.204325 0.973953 -0.0983188
21.9181 -15.6361 -5.2016 0.875072 -0.306054 -0.37494
24.6901 -11.3989 1.89733 0.9787 -0.200103 -0.045871
18.098 -15.3989 18.051 0.648434 -0.228562 0.726149
5.82335 24.1144 -6.26904 0.0731029 0.699651 -0.710735
15.2787 15.7815 -4.99602 0.775497 -0.0513058 -0.629264
18.6241 -12.2644 -11.6076 0.703144 -0.190429 -0.685074
-4.87122 -22.272 18.4902 -0.380619 -0.538451 0.751798
23.5118 -8.79107 12.2527 0.933413 -0.100635 0.344403
15.5397 8.68575 11.983 0.56138 -0.230973 0.794672
21.207 -14.7296 -7.32628 0.831845 -0.268145 -0.485935
-12.2956 26.6435 12.1642 -0.877221 0.451357 0.163583
-0.588757 -4.97734 -21.5797 -0.629361 -0.265973 -0.73018
-12.9077 -23.3887 9.12454 -0.716424 -0.573622 0.397107
-1.89639 -26.4194 15.8862 -0.233812 -0.747967 0.621191
-8.69362 27.4825 15.6522 -0.0359929 0.990297 0.134223
16.001 2.16482 -12.6934 0.464803 0.571943 -0.675899
15.5772 19.3083 15.7491 0.757961 -0.0852258 0.646708
19.0969 -8.66975 -12.0215 0.671996 -0.18228 -0.717771
19.4868 29.5717 5.33748 0.651937 0.731958 0.198028
-11.5832 12.3128 8.50462 -0.882037 -0.114922 0.45695
20.642 19.2906 9.42743 0.938407 -0.07039 0.338286
-8.4289 12.2707 15.7036 -0.705178 -0.452376 0.545968
12.1103 15.8648 -8.182 0.486866 -0.0243157 -0.873138
5.29029 9.76319 18.3135 0.118876 -0.688387 0.715536
16.358 12.2232 12.8331 0.741313 -0.302521 0.599113
-18.0082 -8.7887 8.4748 -0.942755 -0.0956933 0.319462
-5.33594 -12.2894 -16.7552 -0.369722 -0.25077 -0.894662
8.72644 -29.1552 12.2286 0.174259 -0.882122 0.4376
-11.2044 -24.9856 -4.15526 -0.519914 -0.677097 -0.520797
11.2244 -8.07292 -21.6319 0.58829 -0.387353 -0.70984
-8.51491 26.7265 -8.16734 -0.402373 -0.589088 -0.700765
11.3672 -2.5722 -21.4162 0.404465 0.285448 -0.868866
12.0312 -2.24904 21.6286 0.272043 0.319449 0.907714
25.611 -5.21725 -1.68322 0.986151 -0.0828767 -0.143655
15.9399 -15.7938 19.632 0.55528 -0.260929 0.789671
1.87723 30.471 -5.36249 0.241489 0.926903 -0.287288
18.7961 -8.70631 18.6171 0.649963 -0.0421438 0.758796
10.7281 -24.5854 17.6538 0.267416 -0.65182 0.709661
-8.59368 22.414 1.39835 0.918177 0.280801 0.279467
-18.2224 -8.63195 -5.03557 -0.943891 -0.178764 -0.277694
12.4584 5.71508 15.9789 0.287184 0.744724 0.602422
11.8219 12.1983 12.8998 -0.632034 0.437345 -0.639736
-1.61544 19.2082 21.3642 -0.183193 -0.0707181 0.98053
18.8595 -5.32805 18.5515 0.618981 0.0552406 0.783461
-11.5429 7.52458 -8.19032 -0.427762 0.836987 -0.34128
14.7034 18.9796 -4.59933 0.761119 0.284205 -0.583031
-1.2069 -24.889 17.8374 -0.216571 -0.672319 0.707873
15.9482 11.8608 -2.69534 0.0625502 -0.39537 -0.91639
12.3588 19.2891 18.7326 0.546432 -0.0709561 0.834492
-10.9771 -11.9692 18.0766 -0.681849 -0.133393 0.719228
1.79818 -25.8632 -11.9095 -0.0920272 -0.71381 -0.694266
-14.4445 -21.96 8.0439 -0.805522 -0.454382 0.380358
-8.95852 26.4339 19.2986 -0.399878 0.778425 0.483894
5.27673 9.42276 -8.5239 0.202788 0.642821 -0.738687
-1.81106 -12.1633 23.1489 -0.28668 -0.0694571 0.955505
15.4459 28.1502 18.1561 0.0671246 0.974404 0.214551
16.3955 -12.38 20.1615 0.587695 -0.122005 0.799831
23.3744 12.2243 8.71656 0.797237 0.0114284 0.603558
15.5885 -19.1304 -11.9537 0.61518 -0.368581 -0.696923
-18.8024 -15.846 -1.75369 -0.90376 0.410337 -0.121824
-15.0059 1.34621 -11.8748 -0.776423 0.346743 -0.526248
-10.9198 15.9017 2.20869 -0.948142 0.115694 -0.296045
23.564 -5.21976 12.2669 0.927507 0.0791038 0.365341
22.7572 1.64975 8.76719 0.824495 0.477192 0.304132
19.8196 30.3329 -1.69596 0.588216 0.804965 0.0776803
24.3466 -5.19587 10.0304 0.963629 0.0466251 0.263146
5.21042 -19.2551 -16.3364 0.0822958 -0.392623 -0.91601
8.35995 -21.8389 -14.499 0.237085 -0.503662 -0.830732
-15.2497 11.2817 2.20951 -0.235619 0.839058 -0.490373
-1.70401 27.297 18.9835 -0.0474576 0.988409 0.144205
1.44375 24.0453 -6.57327 -0.19691 0.622761 -0.757229
-3.81694 18.3717 -7.28817 -0.542726 0.255855 -0.799992
-8.67399 19.3591 -1.92962 -0.835738 0.120529 -0.535738
19.8804 29.9081 1.73198 0.71082 0.684164 0.163259
-11.1375 19.1894 5.16039 -0.990652 0.09423 -0.098635
-1.42686 -21.7545 -14.4176 -0.235256 -0.488929 -0.840002
-11.8683 1.55751 -15.052 -0.553845 0.375237 -0.743272
-25.2798 1.86176 -1.67589 -0.887029 -0.295317 -0.35492
-8.20549 8.746 12.1494 -0.799398 -0.181128 0.572849
8.64434 19.2134 -8.45869 0.182799 0.364223 -0.913195
5.37255 4.75712 18.5499 0.0227592 0.697877 0.715855
8.56212 12.5685 -8.1034 0.115114 -0.54282 -0.831923
-11.8526 12.0696 1.87628 -0.401015 0.442178 -0.802288
14.6569 -5.38665 21.3526 0.472311 0.123415 0.872749
-7.34553 18.9197 -3.9345 -0.746499 0.171237 -0.642976
22.2593 -28.5819 8.77569 0.340553 -0.937458 0.0720862
13.0628 -0.697767 20.7505 0.302088 0.366446 0.880034
-4.81533 -18.8953 -14.5987 -0.39055 -0.371339 -0.842364
-19.0658 8.5818 5.29051 -0.589701 0.43471 0.680647
-15.722 9.6857 0.557122 -0.0299637 0.559628 -0.828202
22.8603 19.115 1.739 0.741523 0.665543 -0.0848322
-18.4565 -15.6803 1.74022 -0.977106 0.102324 0.186533
20.4828 26.4771 5.15275 0.997185 0.0726499 0.0185371
-12.1128 -19.3254 -8.86585 -0.677169 -0.417849 -0.605676
13.1506 -19.8847 -13.4475 0.485709 -0.407295 -0.773433
-1.60185 19.0558 -8.30181 -0.388517 0.424396 -0.817889
22.0898 4.9678 1.8935 0.88508 0.457014 -0.0881586
-1.79261 -29.0897 -5.34928 -0.23904 -0.918724 -0.314334
-16.4502 1.88649 -8.84612 -0.8365 0.380343 -0.394471
12.2435 -5.20474 22.3723 0.334321 0.18047 0.925019
19.8241 -15.9257 16.0544 0.742907 -0.271796 0.611732
-12.4891 -1.55869 16.1155 -0.625929 0.287554 0.724931
12.2995 22.9013 -5.66178 0.435968 -0.221969 -0.87216
-1.73692 -22.8423 19.3106 -0.245171 -0.56557 0.787415
5.26309 -29.601 12.2793 0.0569461 -0.900757 0.430573
-21.2121 -22.5002 -1.48118 -0.995999 -0.0736093 -0.0506656
22.3286 19.1822 5.30229 0.821453 0.506405 0.26224
12.3851 -9.05605 -19.3195 0.616468 -0.6486 -0.446414
-12.325 7.97487 -5.38396 -0.468011 0.858225 -0.210749
1.74441 27.7342 16.0588 -0.0449073 0.991678 -0.120657
14.9135 -8.83818 21.4343 0.513223 -0.00654383 0.85823
-8.68785 -26.0891 -5.23371 -0.498163 -0.768595 -0.401368
-6.1178 -9.42465 -17.1849 -0.324719 -0.235503 -0.916022
-8.71774 29.4723 1.8108 -0.081801 0.985302 0.149963
-15.8754 7.92484 -0.742556 -0.160266 0.588616 -0.792367
-18.0321 1.40875 -5.08142 -0.901826 0.324229 -0.28563
8.77172 -12.2474 23.6845 0.224766 -0.105802 0.968652
17.0293 30.0622 5.70977 -0.307889 0.951397 0.00694875
-12.8094 -12.2595 16.0848 -0.743178 -0.168303 0.647581
12.375 24.8805 -6.29836 0.0679732 -0.865206 -0.496787
15.8601 -22.8859 -8.91124 0.625407 -0.556564 -0.546903
-5.0821 1.19336 -18.0807 -0.214743 0.356746 -0.909185
-15.7884 -26.6603 1.81604 -0.191232 -0.857531 0.477567
1.66662 22.9322 21.9956 0.188985 -0.347851 0.918305
8.91436 -26.6906 15.9159 0.181887 -0.766486 0.615967
5.16088 15.8297 21.2451 0.144842 -0.0715265 0.986866
-14.965 4.67852 -8.395 -0.713781 0.586696 -0.382498
-5.23642 27.6288 15.5363 -0.0498417 0.989032 0.139035
22.5447 9.24269 8.37306 0.548061 -0.555709 0.625153
9.3951 11.2577 -6.32729 0.338977 -0.477402 -0.810668
24.29 -8.97986 9.45919 0.969207 -0.122126 0.213827
15.6386 28.5669 15.7406 0.022462 0.98496 0.171315
21.1179 22.3953 8.05475 0.994708 0.0437543 0.0929602
-8.71848 27.8572 12.8894 -0.0437797 0.988468 0.144966
18.5451 15.9289 11.3586 0.601882 -0.234796 0.763288
-12.944 26.0739 8.80604 -0.979829 -0.198328 0.0245172
-11.5153 -25.3735 8.31103 -0.626084 -0.694163 0.355185
-12.0272 29.4112 -5.18 -0.699166 0.679555 -0.222198
24.5362 10.3798 4.42588 0.96709 -0.254301 0.00824334
-8.79176 -12.2853 19.8208 -0.583451 -0.124972 0.802476
20.1511 -1.38259 16.4861 0.731061 0.279636 0.622378
-5.56357 -27.2143 12.7399 -0.402596 -0.776062 0.485432
22.6703 -22.6745 5.37879 0.496287 -0.337065 -0.800054
22.8969 -12.3069 -5.26955 0.889674 -0.243172 -0.386455
-12.1811 -15.681 15.7264 -0.743197 -0.233604 0.626967
23.064 1.88207 -5.18375 0.786371 0.515381 -0.340591
-1.84471 25.1418 -3.34357 -0.0383736 0.376071 0.925796
-8.30483 12.3629 -1.94937 -0.819239 -0.0981309 -0.564994
12.0276 29.5716 -10.8081 0.0219127 -0.0259592 -0.999423
-22.0785 5.17339 4.42517 -0.56783 0.0868468 0.818551
-11.4946 23.1103 12.1262 -0.863627 -0.491694 0.111286
-2.04306 30.432 -2.86689 0.00402756 0.947258 0.320445
-2.66028 15.3681 20.7167 -0.305548 -0.163883 0.937967
-9.1816 1.94198 16.6043 -0.46663 0.512591 0.720768
5.18614 26.6132 22.2727 -0.129034 0.768601 0.62658
18.0569 23.6314 -1.27083 0.680377 -0.643514 -0.350681
-6.08277 -19.9584 -13.4556 -0.448299 -0.396791 -0.80099
-5.13283 1.71216 18.8222 -0.333921 0.480618 0.810865
-11.8015 26.5724 -5.20382 -0.692597 -0.591658 -0.412613
12.2313 -8.73 22.7433 0.378533 0.0128707 0.925498
-9.17709 5.92594 12.9925 -0.478979 0.652686 0.58701
-5.87861 -27.4336 -5.81136 -0.40443 -0.839565 -0.362722
23.7215 -8.90917 -5.49 0.885554 -0.24358 -0.395554
-3.88772 -11.0899 -17.6316 -0.329568 -0.205054 -0.921595
12.7383 -27.5059 13.2237 0.297983 -0.800156 0.520535
-18.6723 -5.28419 -5.27572 -0.958748 -0.112293 -0.261137
12.3427 -15.745 -15.4516 0.453997 -0.24637 -0.856264
-8.84318 1.83146 -16.6443 -0.365352 0.406072 -0.83763
19.8372 2.30538 -9.45932 0.590021 0.566924 -0.574867
-5.3267 -19.44 19.9131 -0.415389 -0.391922 0.820883
21.5908 -1.98463 14.8426 0.808746 0.272545 0.521199
-19.5863 1.98638 -2.5202 -0.256615 0.341044 -0.904344
5.14142 -5.15652 23.6243 0.012142 0.24815 0.968645
24.9841 -8.73208 -1.6223 0.956707 -0.241083 -0.163064
-22.5194 -1.01303 1.40703 -0.465821 -0.718601 0.516356
-5.23667 -22.6969 -12.1684 -0.412232 -0.558611 -0.719735
5.22257 -25.9055 -11.8942 0.0822887 -0.718892 -0.690234
-2.16774 -5.45965 -19.9663 -0.583756 -0.260797 -0.768904
-5.30899 -8.76466 21.9104 -0.396947 0.0477703 0.916597
2.03968 25.9553 -5.90868 0.306483 0.0516189 -0.950475
5.26943 12.0544 20.0224 0.136782 -0.532676 0.835193
8.83326 -4.93856 -23.1302 0.271944 0.193577 -0.942642
-5.05924 22.9967 21.9903 -0.289844 -0.49826 0.817146
8.83279 4.48873 18.5118 0.113479 0.683684 0.720901
11.0525 -10.9274 -18.0837 0.483241 -0.701366 -0.523988
19.189 19.3046 12.1691 0.740696 -0.271114 0.614708
-1.78038 -30.1979 8.66484 -0.212869 -0.954013 0.21106
19.5717 22.8359 12.3004 0.816642 0.0955127 0.569186
16.2779 25.0604 0.945885 -0.783111 0.495629 0.375619
8.61349 15.7313 20.4096 0.29542 -0.0223662 0.955105
8.76345 -1.71179 22.1268 0.139101 0.37018 0.918487
-16.2729 -5.31699 12.3975 -0.837024 -0.0110466 0.547054
-11.6185 22.9661 8.62707 -0.90824 -0.418262 0.012506
1.78814 12.309 -8.57524 0.00390138 -0.430959 -0.902363
-7.5769 -28.3399 7.87404 -0.441795 -0.858677 0.259791
15.0301 -25.2348 14.6293 0.410174 -0.624713 0.664448
14.9168 12.6746 15.389 0.726866 -0.435809 0.530788
-8.45462 4.57157 14.909 -0.437135 0.615066 0.656206
1.69848 -31.1321 5.32935 -0.058248 -0.997846 0.0301712
1.8316 26.2617 22.3676 0.0976166 0.548308 0.83056
-20.0597 -2.00491 -2.38682 -0.641825 -0.387222 -0.661906
24.928 -25.7584 8.77232 0.95812 -0.280124 0.0594727
-18.3682 -12.1246 -1.7566 -0.97834 -0.129674 -0.161356
1.88429 -28.5994 -8.137 -0.0826215 -0.887484 -0.453371
22.9144 -22.7351 12.1718 0.613146 0.0332236 0.789271
-7.62609 23.8417 21.2907 -0.497626 -0.429833 0.7534
19.3445 26.207 12.2651 0.966646 -0.0114898 0.255859
-8.76923 -8.82922 -16.2195 -0.431321 -0.29778 -0.851639
22.9708 -12.2145 12.1993 0.921779 -0.189757 0.338107
-5.60799 2.93989 -17.0995 -0.160247 0.550996 -0.818978
5.2051 -22.2718 -14.8016 0.0675212 -0.524419 -0.848779
-15.4984 -23.0602 5.30454 -0.644496 -0.45314 0.615864
-8.69919 -19.1745 -12.1021 -0.557246 -0.379958 -0.738315
-9.83196 19.3244 1.03747 -0.919214 0.0163547 -0.393418
12.3669 -29.0993 -1.75687 0.350085 -0.919764 -0.177414
20.3362 -12.421 16.6604 0.745545 -0.152714 0.648722
-8.48501 -25.7484 12.0792 -0.545294 -0.705225 0.453114
-22.6482 -1.06323 -1.91328 -0.518186 -0.663015 -0.540272
-18.8473 -8.8188 -1.83051 -0.9834 -0.138585 -0.117124
8.58272 -25.5418 -11.4364 0.254547 -0.698274 -0.669043
8.74194 -30.316 8.83291 0.173877 -0.965051 0.196071
-14.9481 -25.1117 4.07171 -0.392405 -0.614578 0.684333
-11.6459 -15.587 -11.4772 -0.624844 -0.338147 -0.703724
-1.55992 -25.4615 -11.4935 -0.25056 -0.68501 -0.684092
-12.3965 13.074 5.24546 -0.797683 0.592521 0.112341
18.0459 28.422 15.0314 0.464515 0.847311 0.257469
-12.224 -1.7594 -15.6735 -0.587637 0.0628094 -0.806683
5.03576 30.5607 -2.84867 -0.0244832 0.899901 0.435407
15.818 -26.7328 12.581 0.223062 -0.743977 0.629874
23.889 2.36149 1.80862 0.855032 0.516815 0.0426958
13.3903 -9.78376 -16.8624 0.648213 -0.5584 -0.517697
11.6148 18.6262 -7.75549 0.449329 0.460081 -0.765786
5.30063 -30.7745 8.75808 0.0625077 -0.978689 0.195604
21.2793 -21.4638 2.15066 0.866116 -0.469978 -0.170189
-17.8814 -1.93864 -8.00089 -0.926967 0.0840648 -0.365603
12.2792 -12.2156 22.4957 0.393083 -0.132167 0.909955
12.7275 22.2401 19.8836 0.441445 -0.602507 0.664914
-12.1322 -26.2343 5.20126 -0.551144 -0.774875 0.309529
-4.87846 15.6778 -1.96708 0.769656 0.09922 0.630702
22.3757 -19.3697 11.9585 0.754916 0.212933 0.620291
25.2222 -8.75329 1.65548 0.980112 -0.19802 -0.013013
12.3334 1.77077 19.682 0.254613 0.507584 0.823123
16.3817 22.4484 16.1243 0.735951 -0.473597 0.483821
-14.5504 -5.28798 14.7547 -0.774587 0.0103829 0.632382
-11.5598 -8.34551 -14.7057 -0.571514 -0.311396 -0.759213
-6.07507 29.58 1.54454 0.114759 0.970504 0.212019
-8.81696 30.0056 -1.76727 -0.105439 0.98573 0.13122
13.1846 -23.9247 16.9892 0.409732 -0.586155 0.698958
-19.6336 -22.8718 1.99218 -0.735804 -0.143612 0.661792
22.8755 -1.75665 12.2594 0.87766 0.28243 0.387229
12.259 26.3338 -8.86638 0.0860812 -0.71123 -0.697669
-1.75158 30.7829 -5.29815 -0.0436654 0.994138 0.0989075
6.39468 29.6665 -7.75912 -0.72103 0.0142487 -0.692757
-15.397 -1.87276 -12.4511 -0.803765 0.0563876 -0.592269
-4.52488 -28.4687 -4.65403 -0.344632 -0.886744 -0.308081
24.6781 -8.39321 7.95046 0.974755 -0.102853 0.198178
21.4433 3.9815 7.91276 0.693041 0.657099 0.296504
24.2733 -12.9731 5.52351 0.971747 -0.215609 0.0960224
24.0958 -1.3703 -6.17679 0.884437 0.218685 -0.412247
-5.67316 28.5723 8.79669 0.0802515 0.986296 0.144154
18.355 -22.289 14.558 0.480029 -0.308487 0.821224
8.76567 -29.2528 -5.32001 0.209497 -0.925721 -0.314883
22.8318 12.2299 -1.74604 0.641006 -0.398508 -0.655975
-16.074 -8.79151 12.4253 -0.842479 -0.0804516 0.532688
-14.4706 -2.18084 14.4633 -0.714551 0.211119 0.666967
5.34243 -29.7416 -5.34995 0.0653665 -0.952401 -0.297759
-9.09214 -27.3096 -2.06767 -0.393738 -0.858356 -0.328931
-8.13848 -19.0348 18.3703 -0.579454 -0.358127 0.732105
14.8758 0.771821 -15.1075 0.635098 0.610629 -0.473057
11.7365 -5.26102 -21.7481 0.524158 0.041914 -0.850589
18.5644 -22.5845 -5.09498 0.775813 -0.517189 -0.361427
18.1401 -15.4202 -11.1089 0.710819 -0.251731 -0.656786
-18.9968 1.56582 4.97571 -0.56227 -0.131803 0.816382
-15.6545 -22.8554 -2.8589 -0.0553119 -0.0765013 -0.995534
1.74893 -31.0717 1.72489 -0.0544739 -0.995331 -0.0796819
13.1302 11.7018 16.5123 0.569723 -0.494432 0.656469
-7.55813 16.0338 17.9701 -0.672278 -0.129969 0.728801
-18.9839 -5.28757 5.408 -0.98364 -0.030034 0.177625
-11.5814 -19.0571 14.9742 -0.719364 -0.339643 0.605936
-9.94489 12.2576 0.722768 -0.73397 -0.0485524 -0.677445
0.764887 30.3729 -8.24786 0.696229 0.529538 -0.484619
-11.0232 27.5434 -7.38556 -0.515694 -0.46925 -0.716844
20.1533 -19.4434 -5.58339 0.829884 -0.414022 -0.374003
-13.0087 26.2664 1.83505 -0.925287 -0.377813 -0.0331901
-22.7678 1.69924 -2.96016 0.0885589 -0.0183179 -0.995902
5.33824 0.623536 21.3664 0.0298896 0.460427 0.887194
-9.99166 -27.8106 1.54917 -0.373539 -0.924797 -0.0722458
25.4121 -1.75248 -1.74655 0.971618 0.203079 -0.121318
19.2379 15.8222 -4.04811 -0.058055 0.149964 -0.986986
-11.5366 15.7681 5.18694 -0.985326 0.131805 -0.108442
-17.1791 -1.21561 10.0256 -0.888412 0.203674 0.41139
-5.37318 9.3227 -8.73716 -0.159544 0.911744 -0.378508
15.6776 -28.7865 8.75856 0.0769703 -0.969335 0.233378
1.67452 -5.30665 23.4394 -0.146758 0.229973 0.962068
14.4708 -28.3108 -1.13459 0.465683 -0.863351 -0.194331
5.27665 -30.529 -1.86559 0.070381 -0.985661 -0.153356
23.0274 -15.7176 -1.66131 0.925295 -0.319855 -0.203771
-8.22815 -28.5286 5.20755 -0.413928 -0.904684 0.101046
-19.342 -19.2897 1.96573 -0.803001 0.245069 0.54326
24.8412 12.6192 2.03699 0.977256 -0.144134 -0.155554
12.3692 -29.6145 1.80542 0.308863 -0.94442 -0.112581
-8.02483 19.081 7.78073 0.998247 -0.00362697 0.0590715
14.8981 -28.562 1.8254 0.464648 -0.875827 -0.130493
17.0495 -8.98278 -13.6595 0.620142 -0.127312 -0.77409
5.09068 30.31 -5.43121 -0.479389 0.693708 -0.537545
1.72059 -1.74213 -22.4795 -0.2181 0.300565 -0.92849
-8.84931 28.4725 8.79893 -0.0485577 0.98894 0.140144
5.36935 -30.9627 1.69102 0.094028 -0.991905 -0.0853459
19.7372 -15.8809 -8.91055 0.780463 -0.276158 -0.560905
18.3586 29.6625 -8.01299 0.692607 0.219604 -0.687073
-4.99441 28.1189 11.9916 0.0312706 0.996187 0.0814516
16.2997 22.5458 -2.16947 0.716061 -0.386585 -0.581213
16.0725 26.4198 19.4825 0.790623 0.113361 0.601718
25.0501 -22.7406 8.93525 0.983561 0.11755 0.137077
14.5416 -15.0882 -14.3367 0.552436 -0.220082 -0.803976
5.16274 27.5874 19.2249 -0.0442068 0.987171 0.153424
-1.46787 9.86041 18.1153 -0.181345 -0.688372 0.702323
23.6328 8.72158 5.41837 0.856248 -0.511598 0.0714599
15.931 29.1541 12.297 -0.0280027 0.985157 0.169358
19.2873 -5.25414 -12.5881 0.660912 -0.0883782 -0.745241
-25.0321 2.03248 1.09156 -0.85093 -0.228607 0.472924
8.90622 5.77527 -12.6394 0.247357 0.747587 -0.616383
-12.2228 -26.4391 -1.92549 -0.0712107 -0.814312 -0.576043
5.23766 2.33311 20.4068 0.0105215 0.524836 0.851139
-11.2187 22.9937 1.92688 -0.881044 -0.450992 -0.142714
1.66692 19.3086 -9.05299 -0.094432 0.425874 -0.899841
-16.9571 -5.54609 -9.62786 -0.869508 -0.150884 -0.470308
5.27241 19.2403 -8.95038 0.11454 0.227403 -0.967041
8.47003 4.09465 -15.4019 0.248572 0.886564 -0.390149
1.86112 -22.27 -14.7441 -0.0962613 -0.512671 -0.853172
15.6883 26.7361 -8.62211 0.204898 -0.642711 -0.7382
-11.2313 -21.8368 -7.90154 -0.657038 -0.523368 -0.542574
17.6333 -24.7073 -3.86932 0.737466 -0.601676 -0.306806
-19.2148 -22.6193 -4.03235 -0.0836234 -0.226536 -0.970406
-1.7788 15.8318 -9.21319 -0.462525 -0.0250861 -0.886251
19.2469 -28.2516 10.9659 -0.0666739 -0.839077 0.539912
-5.25169 19.3546 20.0342 -0.495697 -0.163613 0.852945
19.873 -23.1137 13.6542 0.320362 -0.172088 0.931533
-10.894 15.7306 11.9781 -0.947318 0.090829 0.307145
1.7574 -26.9923 16.1562 -0.0891019 -0.770375 0.631334
15.7694 30.1067 -9.17773 0.26882 0.454553 -0.849186
-4.68203 -15.5013 21.6033 -0.394146 -0.216579 0.893164
-8.65571 4.45153 -14.9323 -0.318574 0.652533 -0.68754
-5.04163 -25.6355 15.2672 -0.37867 -0.702358 0.602746
24.8066 15.2506 1.85959 0.980382 0.168637 -0.102037
19.6585 30.1991 -5.22182 0.717844 0.649665 -0.250271
22.1675 18.5952 -1.43532 0.62833 0.587396 -0.510065
12.1247 -26.0402 15.4381 0.317137 -0.719245 0.61815
-9.23654 15.8287 1.13373 -0.946869 0.0221143 -0.320857
-16.3543 -15.9049 -5.51032 -0.729325 -0.204314 -0.652948
22.163 -15.694 12.262 0.908412 -0.20106 0.366554
12.5275 30.8852 -2.4814 -0.0669564 0.979023 0.192433
16.0341 9.26753 -2.24625 0.265195 0.162787 -0.950354
-20.4516 -18.9818 -1.94976 -0.914456 0.396208 -0.0824009
5.16249 -5.27541 -23.5509 -0.111008 0.071117 -0.991272
-12.5515 8.62321 -1.78917 -0.405988 0.880323 -0.245365
19.2262 -28.927 8.76157 -0.0491007 -0.986853 0.153978
21.7121 -18.9547 -1.68155 0.888777 -0.404518 -0.215502
5.43693 -1.52996 22.3614 0.0248087 0.391428 0.919874
-12.3396 -12.3428 -12.3353 -0.629538 -0.318705 -0.708596
8.61478 -19.1359 21.8416 0.22317 -0.403297 0.887438
8.78988 -30.6652 5.28308 0.167231 -0.985909 0.0041808
5.14433 -8.79067 24.2002 0.00646609 0.059733 0.998193
25.4981 -1.75054 1.81185 0.976773 0.203525 0.0670239
-0.731639 -1.99237 -21.5778 -0.550478 0.210987 -0.807749
-1.72605 27.7399 15.5929 0.0440291 0.996307 0.0737199
8.73529 -1.71988 -22.0385 0.255849 0.451638 -0.854731
15.343 15.8166 15.7772 0.803004 -0.0206779 0.595614
2.02603 0.671522 -21.463 -0.17553 0.541838 -0.82195
8.52512 27.7277 19.2228 -0.0447798 0.986644 0.156617
22.9835 8.8109 1.72993 0.735471 -0.57728 -0.354725
24.0258 -1.51466 9.02614 0.917744 0.267976 0.293146
12.007 -28.6293 11.647 0.26703 -0.871337 0.411663
12.2426 -29.5432 8.71107 0.257185 -0.942788 0.212147
16.0454 6.0963 12.5617 0.495752 0.740753 0.453338
16.7762 -12.3721 -13.3152 0.632028 -0.165676 -0.757029
-1.66086 -15.7703 22.6049 -0.265047 -0.236426 0.934801
-9.81115 11.8407 12.6202 -0.823261 -0.479684 0.303554
-5.24375 -5.30298 -18.5428 -0.288375 -0.138107 -0.947505
19.601 -22.8594 -1.72649 0.825883 -0.517792 -0.223178
-1.84997 30.2121 -9.40368 0.106629 0.640633 -0.760408
5.09718 -15.144 -17.8174 0.0690209 -0.274198 -0.959193
12.173 -22.7601 -12.1361 0.438135 -0.554864 -0.707223
-1.64527 -8.65437 -19.0881 -0.395374 -0.326851 -0.858398
5.45881 -16.8323 -17.2641 0.0835791 -0.329686 -0.940384
-9.00406 6.12775 -12.8112 -0.32268 0.765477 -0.556707
19.208 26.4321 -5.19981 0.667485 -0.636824 -0.3859
11.6798 -28.5093 -4.93187 0.358001 -0.873111 -0.330926
-19.0946 -25.9537 -1.92512 -0.523143 -0.775424 -0.353608
19.4492 19.1868 -2.22238 0.102097 0.699851 -0.706955
16.6598 -27.4041 1.6276 0.608291 -0.773745 -0.176919
23.9774 -27.395 8.87054 0.73988 -0.667723 0.0819935
-15.8322 -26.5853 -2.03955 0.027137 -0.777736 -0.628005
23.8227 2.24082 -1.82153 0.841658 0.527148 -0.117159
-1.79242 6.09267 16.7709 -0.256224 0.496425 0.829404
-19.4602 5.29583 -1.55981 0.0718233 0.233955 -0.969591
5.18863 12.2766 -8.29425 0.10412 -0.380639 -0.918843
12.7394 19.7152 -6.11968 0.5786 0.406732 -0.706959
-8.60958 29.577 -8.8569 -0.480498 0.302538 -0.82316
-4.77105 -8.32091 -17.9907 -0.305187 -0.26834 -0.913704
12.3709 2.25368 -15.9071 0.483085 0.807598 -0.338253
15.586 -19.0947 18.5073 0.551857 -0.381573 0.741523
20.1632 -23.1712 1.59546 0.83681 -0.522345 -0.164028
22.2397 -19.2799 1.79904 0.908502 -0.381699 -0.17009
-1.98959 -23.3566 -13.1722 -0.259235 -0.577102 -0.774435
2.11859 -8.01504 -21.7817 -0.440463 -0.546152 -0.712538
12.4514 28.1306 18.083 -0.0313605 0.984627 0.171832
-15.2542 -5.1507 -12.2791 -0.774668 -0.169089 -0.609342
12.2713 -29.9053 5.30417 0.270783 -0.962632 0.00403947
12.0317 -22.5088 18.6648 0.374794 -0.537401 0.755467
1.62469 -5.31703 -22.718 -0.378834 -0.197091 -0.904234
8.73021 -30.4876 1.69547 0.155963 -0.984628 -0.078636
23.9707 16.2933 5.74213 0.843861 0.394103 0.364119
24.6117 -10.9452 -0.558823 0.96885 -0.217133 -0.119092
20.2761 2.68881 12.8158 0.711875 0.587634 0.384603
25.0617 -8.76947 5.30805 0.983886 -0.138268 0.113357
-1.7316 -19.3051 -15.5388 -0.248563 -0.388755 -0.887179
-14.8109 -8.56483 -11.5676 -0.739439 -0.276521 -0.613813
-1.72792 1.48076 -19.0444 -0.365188 0.574805 -0.732282
-5.3105 22.87 -5.339 -0.39321 -0.400328 -0.827722
16.4162 -5.37703 -15.6991 0.865586 -0.1945 -0.461444
24.2889 16.9057 1.48114 0.912031 0.388646 -0.13097
15.8957 -1.80176 19.8595 0.460495 0.268896 0.845955
24.82 12.3622 5.13895 0.985628 -0.0874752 0.144522
19.6527 5.44114 8.93285 0.707728 0.492569 0.506456
-1.7231 -30.0971 -1.73214 -0.206719 -0.955752 -0.209299
18.6386 1.19128 -11.5183 0.561241 0.479247 -0.674782
8.73158 22.952 22.0586 0.0819153 -0.59748 0.797689
-9.88221 21.9867 16.0043 -0.812716 -0.504273 0.291892
12.0968 -15.6278 21.8644 0.405572 -0.241338 0.881627
5.31331 -1.74032 -22.6706 0.0573564 0.419397 -0.905989
-21.1263 -20.4728 -1.77728 -0.975483 0.206774 -0.0753461
-5.1902 4.91614 -15.4991 -0.121166 0.701298 -0.702496
-12.3167 -22.9191 -5.31373 -0.647849 -0.564788 -0.51118
-19.2926 -5.2397 -1.7325 -0.985167 -0.159302 -0.0637855
-12.0642 29.0787 1.74335 -0.238697 0.962983 0.125249
1.82188 9.66886 -8.78467 0.0448944 0.699791 -0.712936
1.51142 -27.5708 -9.81864 -0.105025 -0.82652 -0.553023
23.2376 15.8576 -1.86644 0.78831 0.207866 -0.579102
-1.60855 -2.05266 21.7617 -0.239534 0.341487 0.908851
20.8254 23.1179 9.4376 0.970514 0.139416 0.196634
24.8676 -2.06553 -4.59679 0.940505 0.153187 -0.30329
-5.187 -29.1506 8.71596 -0.353567 -0.901439 0.249796
1.74366 27.4359 19.1529 -0.034456 0.99148 0.125617
1.65357 -29.7213 -5.29406 -0.0942637 -0.950323 -0.29665
-22.6062 5.11433 -2.15261 0.114102 0.4568 -0.882221
19.3858 -26.5035 4.54848 0.569785 -0.365692 -0.735945
-2.32557 23.4712 -2.9065 0.315628 0.121511 0.941071
8.74536 1.7248 -19.6863 0.217974 0.668101 -0.711427
-8.76748 22.7285 19.122 -0.66254 -0.550971 0.507417
18.9323 -19.0817 15.5072 0.672475 -0.32679 0.664068
8.74634 -9.29744 -22.1292 0.257947 -0.696185 -0.669918
15.8082 31.2821 -5.28117 -0.0151153 0.997347 0.0712113
-15.6588 5.29695 -5.47701 -0.731319 0.631947 -0.256546
1.97092 -15.0004 -17.8177 -0.0936057 -0.294499 -0.951056
-1.97584 -27.2096 -9.15434 -0.261832 -0.807593 -0.52843
-5.28918 -15.7819 -15.6042 -0.397021 -0.312829 -0.862851
5.24604 -28.3526 14.5032 0.0510603 -0.821057 0.568558
19.184 29.1931 8.56425 0.655939 0.72127 0.222515
-8.88187 -8.69472 20.0233 -0.548352 0.00972884 0.836191
1.6352 -19.6802 21.9284 -0.128245 -0.434068 0.891705
8.90931 -5.21152 23.2609 0.182134 0.235409 0.954678
23.2727 -15.7312 8.69774 0.974976 -0.0880988 0.204108
-18.7057 -1.84249 -5.31649 -0.953077 0.109798 -0.282115
5.24943 15.6418 -9.46513 0.154297 -0.103911 -0.982545
23.663 -15.7357 5.2809 0.979088 -0.202562 0.0188557
16.5903 -8.8582 20.3314 0.577525 -0.019208 0.816147
-5.24644 15.595 19.5373 -0.496012 -0.160997 0.85326
23.7763 -18.9145 8.96427 0.890603 0.398796 0.218607
-15.6116 -19.2034 -4.87098 -0.460665 -0.45855 -0.759947
-9.26265 -16.0077 -13.1469 -0.54654 -0.325536 -0.77157
-5.21094 29.9993 -9.45067 -0.121021 0.499652 -0.857731
-14.817 -21.7957 -4.00727 -0.600553 -0.489707 -0.632079
16.9133 -19.9848 16.9383 0.617228 -0.407779 0.672864
16.9717 15.6583 13.1095 0.889723 -0.0383472 0.454888
5.34346 -12.3289 24.1038 0.0304183 -0.0990177 0.994621
15.5312 -26.0147 -5.18621 0.597519 -0.701347 -0.388695
17.8982 -21.6052 -7.58832 0.733 -0.484456 -0.477508
15.9728 -22.8528 15.8776 0.520596 -0.49052 0.698835
16.1038 -1.56267 -15.6416 0.807124 0.350283 -0.475239
11.9615 9.06516 15.2877 0.519586 -0.437433 0.73395
12.2409 9.24417 -5.12095 0.589672 0.364407 -0.72076
-7.75121 -4.92252 -17.8439 -0.348343 -0.177439 -0.92042
8.72972 -19.3187 -15.6658 0.248281 -0.386145 -0.888397
-12.1997 -27.1984 1.77811 -0.192521 -0.969545 0.151388
22.6231 -26.3383 11.5856 0.494371 -0.414929 0.763827
-1.96328 -15.8189 -16.8014 -0.254391 -0.309723 -0.916164
16.6976 2.88404 16.7907 0.475465 0.592285 0.650486
-2.37094 -1.49568 -20.1414 -0.616563 0.167572 -0.769266
21.9477 -8.63982 15.3102 0.811221 -0.0741701 0.580017
23.2975 -19.2444 5.20098 0.924478 -0.0315242 -0.379931
16.1651 -15.9142 -12.8083 0.627132 -0.24972 -0.737798
1.49944 -16.612 -17.2406 -0.124813 -0.316 -0.940513
-11.5472 28.3163 8.45174 -0.124647 0.982161 0.140796
8.71137 8.50398 16.4382 0.292286 -0.414705 0.861736
-12.0439 8.75927 8.32219 -0.408023 0.0805206 0.909414
15.4957 1.44536 18.5709 0.411662 0.487308 0.770107
11.8245 0.991945 -18.8743 0.470108 0.671612 -0.572656
-1.48232 12.4248 -7.99591 -0.375243 -0.406414 -0.833079
-12.6578 26.18 -1.6955 -0.855482 -0.498838 -0.138964
-5.45647 19.2019 -5.7083 -0.632192 0.232885 -0.738985
1.83955 -12.1715 -18.7562 -0.150063 -0.380893 -0.91236
15.1103 4.20418 -11.3595 0.398417 0.677155 -0.618647
-5.25827 -29.6841 5.28015 -0.323137 -0.944759 0.0548822
8.95128 -8.77372 23.7742 0.214632 0.0387059 0.975928
25.7149 -5.33321 1.81386 0.996654 -0.0667953 0.0471177
-17.8115 -5.02721 -7.98836 -0.92075 -0.110036 -0.374314
5.42545 -15.882 23.4741 0.0496789 -0.253412 0.966082
-5.22547 -29.0511 -1.80653 -0.333738 -0.912303 -0.237323
18.4445 -25.6684 1.8218 0.75583 -0.624756 -0.195962
15.3877 -8.55963 -15.4491 0.724811 -0.341987 -0.598075
-18.1502 -16.4951 -4.12997 -0.570814 0.384517 -0.725478
5.34049 -11.9816 -19.2429 -0.00348017 -0.621475 -0.783426
-2.1079 23.0138 -6.2719 -0.302123 0.0993758 -0.948075
5.27597 -19.366 22.2259 0.0411631 -0.420884 0.90618
-9.04289 -23.0356 -9.0251 -0.566995 -0.580995 -0.583919
1.84579 -30.5586 -1.82228 -0.0499831 -0.98223 -0.180904
19.528 5.36156 -5.35436 0.539076 0.772482 -0.335661
16.0821 24.9152 -6.1279 0.291817 -0.81867 -0.494593
20.0935 26.348 -1.68694 0.857585 -0.509409 -0.071061
-5.22248 -26.1206 -8.68788 -0.402263 -0.744114 -0.533365
-5.1646 9.05348 15.6602 -0.478382 -0.5586 0.677581
8.95701 -27.179 -9.30759 0.256229 -0.790201 -0.556713
20.7327 -20.4906 -2.62056 0.85855 -0.448726 -0.248067
18.5712 -12.1936 18.4156 0.65648 -0.135864 0.742008
8.83728 -15.781 23.0096 0.246671 -0.255722 0.934751
